VERSION .7
FIELDS x y z
SIZE 4 4 4
TYPE F F F
COUNT 1 1 1
WIDTH 1255
HEIGHT 1
VIEWPOINT 0 0 0 1 0 0 0
POINTS 1255
DATA ascii
0.000000000 0.000000000 0.000000000 
-0.000076484 -0.000387307 -0.000648787 
-0.000220566 -0.000210004 -0.000739837 
-0.001611357 0.000341575 -0.000273946 
-0.002948486 0.002727652 0.004219032 
-0.002578418 0.003911285 0.007635873 
-0.001965810 0.005333145 0.011181179 
-0.001619120 0.006877187 0.014652936 
-0.001168908 0.007627909 0.016892744 
-0.000168027 0.008323159 0.018742498 
0.000539830 0.008672168 0.020195222 
0.001760432 0.007665538 0.020770719 
0.003226076 0.006620542 0.020955265 
0.004170913 0.005800890 0.020390723 
0.005309541 0.004445856 0.019843535 
0.006107342 0.003864401 0.019995596 
0.006942679 0.003824661 0.020661229 
0.007416314 0.003974799 0.022156253 
0.007797959 0.004484158 0.023017351 
0.008284470 0.006595919 0.027172580 
0.007884996 0.008950615 0.032296725 
0.007530445 0.013713772 0.041300271 
0.007101735 0.018714014 0.050966524 
0.007025341 0.025009423 0.062799729 
0.007002853 0.032563537 0.074017726 
0.007423996 0.040223908 0.084697545 
0.007736212 0.047645427 0.094245009 
0.008473505 0.053902455 0.100100301 
0.009997330 0.058777843 0.105286554 
0.010563323 0.059208110 0.105759859 
0.011029908 0.057603329 0.103915647 
0.012295944 0.056690700 0.102434389 
0.012831654 0.056561749 0.101261869 
0.014099985 0.055953156 0.099670924 
0.015852459 0.056684181 0.099162288 
0.016987080 0.057492260 0.099750087 
0.018298212 0.060716659 0.101500414 
0.019586405 0.064978160 0.104258545 
0.020254942 0.069463730 0.106866807 
0.021662248 0.072326466 0.108579040 
0.022882637 0.072569743 0.109159589 
0.024538917 0.071173802 0.107326664 
0.026854305 0.069756687 0.105894014 
0.028553814 0.067610040 0.105011337 
0.029687509 0.066970259 0.104984127 
0.031454820 0.067496978 0.104936220 
0.032340840 0.068059161 0.105462164 
0.033548087 0.068986043 0.106991664 
0.034553409 0.068869069 0.108618304 
0.035179857 0.069128089 0.109546147 
0.036659256 0.068565235 0.109445117 
0.038109783 0.067424640 0.109023064 
0.039350390 0.065619327 0.108717129 
0.040045749 0.064589471 0.109011307 
0.040255867 0.062624767 0.108320542 
0.039575063 0.061130438 0.107838757 
0.038642786 0.060756706 0.107902035 
0.038252428 0.060855776 0.108064555 
0.037571054 0.060898013 0.107811093 
0.036798753 0.060458638 0.107957110 
0.036872841 0.059606545 0.108046681 
0.036244061 0.058466766 0.107740574 
0.036035735 0.057116892 0.107303075 
0.036328621 0.055881575 0.106327161 
0.036931928 0.054846473 0.105980776 
0.037369531 0.053516783 0.106016561 
0.038142700 0.052580185 0.105874650 
0.038599264 0.050881710 0.105525464 
0.039302438 0.049201898 0.105284140 
0.039568715 0.048040651 0.105515696 
0.039999884 0.046693999 0.105388381 
0.040155184 0.045129575 0.105641007 
0.040727962 0.044820499 0.105576307 
0.040474996 0.046363518 0.106750317 
0.040274188 0.047666833 0.106476776 
0.038880415 0.048175480 0.105643123 
0.036372464 0.046801791 0.103629626 
0.033153892 0.044352572 0.100226961 
0.030150585 0.041698240 0.097070061 
0.026164087 0.038764562 0.094362557 
0.021169350 0.039179593 0.098342203 
0.010434353 0.039969184 0.099935442 
-0.004889017 0.041950230 0.103745900 
-0.022798814 0.044811394 0.105390429 
-0.039032381 0.047365215 0.104711436 
-0.053402580 0.047434673 0.098981418 
-0.066583432 0.046781648 0.094141610 
-0.079307668 0.046280291 0.089954972 
-0.092554651 0.046697736 0.086414948 
-0.105579153 0.047604732 0.083815485 
-0.119809277 0.046698954 0.084106132 
-0.131773606 0.047144011 0.087111488 
-0.141740456 0.048824571 0.092734091 
-0.150956601 0.050571494 0.100639969 
-0.159882843 0.052034393 0.107956395 
-0.167504713 0.051308408 0.112237446 
-0.175801873 0.053397439 0.126130447 
-0.182921141 0.056128472 0.136987031 
-0.188854232 0.060013793 0.149033874 
-0.194615707 0.062869363 0.166686013 
-0.201156169 0.063199520 0.188351423 
-0.208039820 0.061122917 0.208361968 
-0.218252003 0.058697809 0.225611240 
-0.229853243 0.058182571 0.238571376 
-0.240864053 0.059420235 0.247752637 
-0.251051307 0.059311509 0.254723340 
-0.259835601 0.058543015 0.261069387 
-0.269575477 0.056373987 0.266244382 
-0.280477375 0.054892562 0.271617919 
-0.292099863 0.055225782 0.276799411 
-0.311422318 0.056766078 0.279782385 
-0.330059350 0.059855796 0.284539551 
-0.350848466 0.064237989 0.288411647 
-0.372917861 0.069983140 0.292410970 
-0.396943629 0.074864946 0.295179158 
-0.419867009 0.078406967 0.296387613 
-0.447866082 0.078635991 0.294227183 
-0.468368351 0.080218643 0.292353332 
-0.495703906 0.084764093 0.290461063 
-0.516462445 0.086875468 0.291798949 
-0.533732176 0.085473940 0.292186499 
-0.547811508 0.082371786 0.293950558 
-0.558664143 0.079816289 0.297917366 
-0.566659749 0.077363059 0.302024841 
-0.572060347 0.074613437 0.304344654 
-0.574866533 0.073952444 0.304434657 
-0.572782516 0.075222582 0.302648455 
-0.567115128 0.067411043 0.301047742 
-0.560297132 0.060721986 0.299586564 
-0.556954145 0.052208241 0.299092472 
-0.559357345 0.043740243 0.298522234 
-0.564262629 0.038146693 0.298165500 
-0.568796456 0.035938542 0.300027102 
-0.574547827 0.036779672 0.304256558 
-0.582829535 0.036978912 0.308080584 
-0.595293880 0.038103219 0.313179433 
-0.609818935 0.039814647 0.317266881 
-0.626573086 0.042233769 0.322222322 
-0.646593213 0.046286374 0.326821208 
-0.671126366 0.050728973 0.330299407 
-0.699779153 0.057581551 0.333928198 
-0.726853788 0.063756168 0.336297452 
-0.766292095 0.075172573 0.340516090 
-0.799317718 0.083625235 0.348292887 
-0.830568731 0.088529505 0.354128659 
-0.857679129 0.088279605 0.357623875 
-0.878920794 0.085709982 0.360511601 
-0.896691322 0.085268959 0.363541901 
-0.909800291 0.086207122 0.367502034 
-0.919951260 0.086695462 0.372092307 
-0.926564693 0.087397426 0.376107812 
-0.928941131 0.085984156 0.377219915 
-0.923207521 0.085627690 0.381643772 
-0.915286958 0.077699482 0.375930876 
-0.898973465 0.070147723 0.381154537 
-0.897070408 0.064821914 0.384078145 
-0.896679461 0.060089361 0.385927200 
-0.905074656 0.056811683 0.386948586 
-0.914398909 0.056900062 0.390448570 
-0.925256491 0.057242464 0.393365115 
-0.939446151 0.058733992 0.396562248 
-0.956503332 0.062396765 0.400617599 
-0.976978123 0.066243529 0.404932857 
-1.000226021 0.070433542 0.409545302 
-1.023306251 0.076493077 0.416402578 
-1.054801822 0.080282383 0.421547174 
-1.087357163 0.085298754 0.428406209 
-1.121906400 0.090837933 0.434998572 
-1.154965758 0.095550783 0.441964924 
-1.184128284 0.097652465 0.447687089 
-1.210894942 0.098685727 0.453062266 
-1.237581730 0.099202320 0.457197845 
-1.264762878 0.100736715 0.458464384 
-1.288953304 0.101286620 0.458508283 
-1.308114648 0.103022143 0.460386455 
-1.323412776 0.104550682 0.463838130 
-1.332843184 0.106214374 0.469084680 
-1.341370583 0.107041597 0.471845031 
-1.347425222 0.107740209 0.474912822 
-1.348921299 0.107658811 0.474255621 
-1.348286390 0.105567701 0.474088371 
-1.345673680 0.102027066 0.475572407 
-1.344980478 0.100875393 0.477106899 
-1.350333214 0.097072989 0.475429595 
-1.356228590 0.095545053 0.476640791 
-1.365086317 0.094632156 0.477563560 
-1.373775125 0.092939243 0.482721567 
-1.386673570 0.093393281 0.488536894 
-1.397078633 0.096706405 0.500872791 
-1.420536041 0.100420296 0.509457827 
-1.441519380 0.106492259 0.522466063 
-1.464634418 0.113464028 0.536741734 
-1.491386414 0.120112069 0.552097678 
-1.518975854 0.126038447 0.568267584 
-1.546752572 0.132849023 0.582839131 
-1.569676280 0.139450550 0.599021792 
-1.592191815 0.141507521 0.612013876 
-1.612970471 0.143061697 0.622998059 
-1.626305580 0.146436304 0.637806118 
-1.636660933 0.150365740 0.651330590 
-1.647761345 0.152684107 0.666742861 
-1.653572321 0.155029967 0.679423690 
-1.658835411 0.156878605 0.692380905 
-1.660811186 0.156155452 0.706023574 
-1.663735032 0.155851558 0.719936907 
-1.664885521 0.154437751 0.734109402 
-1.659929633 0.150950924 0.746551394 
-1.656666279 0.146146551 0.764878750 
-1.649290085 0.142611787 0.779704154 
-1.651467323 0.137068376 0.799749315 
-1.666790962 0.136486396 0.816196322 
-1.649185419 0.138594300 0.826638877 
-1.654338002 0.137522042 0.841521382 
-1.662396550 0.137334302 0.856399953 
-1.673793554 0.139333084 0.872875035 
-1.688803792 0.142699435 0.888936222 
-1.705468655 0.149879724 0.909653008 
-1.723496318 0.156776726 0.928998053 
-1.743736744 0.161276251 0.947483480 
-1.766132474 0.162344456 0.964462161 
-1.788360953 0.160960495 0.979470372 
-1.808502436 0.161309391 0.992526472 
-1.823465586 0.162480190 1.002353668 
-1.840637803 0.164305687 1.012472987 
-1.854647994 0.164081216 1.017894149 
-1.864046454 0.162147373 1.022427797 
-1.868807554 0.159979537 1.025771379 
-1.871454597 0.157753423 1.028665543 
-1.872549295 0.157622561 1.029047847 
-1.869170308 0.157504663 1.027745128 
-1.862522125 0.154409960 1.023809552 
-1.855635643 0.152251512 1.021067619 
-1.850000739 0.148488313 1.021603227 
-1.851355672 0.144986287 1.022484183 
-1.854002476 0.142037839 1.027538776 
-1.856633186 0.140440896 1.033950686 
-1.858071804 0.140627861 1.041799068 
-1.869825840 0.140120357 1.048385024 
-1.879312396 0.144101739 1.060784578 
-1.892124653 0.149908930 1.072689891 
-1.907920837 0.155303150 1.085079193 
-1.926297784 0.159516230 1.098733544 
-1.943284988 0.162193090 1.110613108 
-1.967078805 0.166618675 1.125277996 
-1.989519000 0.168971360 1.136487365 
-2.013328075 0.168587536 1.144745827 
-2.036748886 0.166305318 1.150153637 
-2.058598280 0.164245903 1.156554341 
-2.078975916 0.164808497 1.163708925 
-2.097414732 0.167589396 1.171683192 
-2.112174988 0.173379838 1.181501031 
-2.123484373 0.180032656 1.192259789 
-2.132742167 0.185236529 1.201170444 
-2.137435675 0.188799918 1.206663609 
-2.141206980 0.195335776 1.215869904 
-2.141550303 0.200810254 1.222089410 
-2.141312599 0.204884946 1.226984739 
-2.138961315 0.208564758 1.231951237 
-2.138262272 0.210759953 1.234455943 
-2.143833637 0.211586073 1.236383677 
-2.150180340 0.211540163 1.239749789 
-2.157590628 0.210932940 1.247014046 
-2.162588120 0.211016685 1.257818580 
-2.175293446 0.211404860 1.271985888 
-2.187902451 0.215786576 1.288709164 
-2.202352762 0.223971307 1.308300018 
-2.219352722 0.234439731 1.329623818 
-2.236410618 0.240940198 1.350132346 
-2.256971836 0.244257033 1.368264437 
-2.274093151 0.248813435 1.386148214 
-2.289831400 0.254098952 1.403252602 
-2.302028418 0.258177072 1.416593552 
-2.315690756 0.261762142 1.433334947 
-2.322772026 0.263424963 1.445841193 
-2.324876547 0.266279161 1.457435250 
-2.321926594 0.270717889 1.467989326 
-2.319569588 0.273180872 1.476383090 
-2.314756155 0.274520814 1.482310534 
-2.307248592 0.274433345 1.486187339 
-2.298822165 0.271335363 1.488682151 
-2.289680481 0.266257524 1.491424322 
-2.282521486 0.261649936 1.494808555 
-2.278625011 0.257529587 1.498646498 
-2.277908325 0.255591094 1.502585053 
-2.281708479 0.253406465 1.509030223 
-2.287014484 0.250408709 1.516756773 
-2.295098305 0.248808861 1.525977731 
-2.303560257 0.249493703 1.534970999 
-2.318721533 0.253365308 1.548522949 
-2.335031271 0.257796794 1.561892748 
-2.352988720 0.262473077 1.575946331 
-2.372792959 0.266425133 1.591556311 
-2.393912554 0.271405637 1.608022094 
-2.414536476 0.278634012 1.624987841 
-2.432926893 0.287007987 1.641921401 
-2.446456432 0.291849941 1.657282710 
-2.453982115 0.293221891 1.670788765 
-2.457834244 0.294384241 1.682743788 
-2.454756975 0.296654165 1.690661669 
-2.455817938 0.296265721 1.702951670 
-2.451694250 0.294017375 1.709097385 
-2.448084116 0.290852487 1.716559768 
-2.443338156 0.287627518 1.720048785 
-2.438621998 0.282003999 1.721347570 
-2.435233593 0.275735378 1.722154737 
-2.435338974 0.269581974 1.723348737 
-2.439416885 0.265677124 1.727059484 
-2.446466208 0.261858344 1.733341455 
-2.454963207 0.259639949 1.741809130 
-2.463825464 0.258260548 1.754217386 
-2.474193811 0.261295855 1.769591451 
-2.487837076 0.267347097 1.786843896 
-2.503610611 0.275974751 1.804665089 
-2.521794796 0.286178529 1.823800683 
-2.541495085 0.297643036 1.843485117 
-2.565700531 0.308379650 1.866513491 
-2.593071938 0.313027442 1.888708234 
-2.616280794 0.311992526 1.905052781 
-2.636801958 0.313872665 1.922505260 
-2.653488159 0.314417928 1.935166597 
-2.668333530 0.317631900 1.945913553 
-2.680111885 0.320385218 1.954036593 
-2.686801434 0.322929382 1.960592031 
-2.694103718 0.320639968 1.966492653 
-2.696874619 0.317863852 1.971869469 
-2.697224617 0.317698509 1.975993276 
-2.694657326 0.319560587 1.980032086 
-2.690771580 0.322729468 1.981816530 
-2.687597036 0.323110521 1.981857300 
-2.685034275 0.322969109 1.980323076 
-2.683563471 0.321973711 1.977113485 
-2.681650162 0.321183950 1.972343326 
-2.680773020 0.319277972 1.967180014 
-2.681676626 0.316289544 1.963681698 
-2.684107780 0.313710779 1.964394689 
-2.689612389 0.311566234 1.966957211 
-2.695849419 0.311778992 1.979691863 
-2.703557968 0.313412875 1.996455908 
-2.712582588 0.316637158 2.015429020 
-2.723852396 0.323559284 2.037355900 
-2.742409229 0.324234188 2.061174631 
-2.768996239 0.314587206 2.073757172 
-2.785758018 0.311419755 2.095580578 
-2.798114300 0.307487398 2.112698317 
-2.805021048 0.305471390 2.127263308 
-2.810658455 0.303789228 2.143273115 
-2.814357042 0.302308410 2.157803535 
-2.817183256 0.301094413 2.171536922 
-2.819517374 0.299699873 2.185229540 
-2.821508646 0.300212890 2.198511600 
-2.822669029 0.301069260 2.212699175 
-2.824330330 0.301025599 2.226446867 
-2.824516773 0.301096469 2.240786076 
-2.824098825 0.301365107 2.251322746 
-2.822371960 0.302084625 2.268550873 
-2.821584702 0.302487314 2.284255981 
-2.817629337 0.302943349 2.299157619 
-2.821447849 0.297898859 2.315268040 
-2.819932699 0.294959724 2.328061581 
-2.825553417 0.288419247 2.343121052 
-2.829328775 0.282230049 2.359458923 
-2.833195925 0.278025180 2.373701572 
-2.836707830 0.273191690 2.387361050 
-2.838494062 0.271520168 2.397965908 
-2.847476006 0.269871563 2.418276548 
-2.850577831 0.267563581 2.438022614 
-2.855450153 0.268996984 2.455646038 
-2.861756325 0.271627545 2.476059198 
-2.870721817 0.276771188 2.495950937 
-2.877815247 0.284113288 2.521525145 
-2.888099670 0.287051618 2.544698000 
-2.899530888 0.285783231 2.566382408 
-2.912826061 0.285743296 2.590528250 
-2.922270775 0.289824188 2.615879536 
-2.931616306 0.292638779 2.641712904 
-2.938314438 0.295531571 2.664815903 
-2.939697266 0.300469279 2.683459759 
-2.945226908 0.302225947 2.704536915 
-2.947504520 0.302092612 2.722281218 
-2.947144508 0.301372945 2.741757631 
-2.944045544 0.302753806 2.764860153 
-2.941092491 0.305226982 2.781334639 
-2.937904119 0.308211625 2.798014164 
-2.934528589 0.311023831 2.814302444 
-2.929566145 0.314595759 2.830521107 
-2.923059464 0.318208218 2.846219063 
-2.915505648 0.322939694 2.860812664 
-2.908535719 0.324098468 2.875132322 
-2.903339863 0.318256259 2.888956547 
-2.899719715 0.311944962 2.902409077 
-2.897440910 0.306049466 2.915176153 
-2.894201279 0.301854372 2.927572966 
-2.893983603 0.299075246 2.942124844 
-2.891855717 0.299413025 2.955554724 
-2.890821934 0.300558388 2.967921019 
-2.889909267 0.301142573 2.980171204 
-2.889960289 0.302378774 2.991719246 
-2.891401768 0.303872645 3.003636122 
-2.894043446 0.304572344 3.014122963 
-2.898926973 0.306287050 3.028328180 
-2.905361176 0.308499992 3.043204308 
-2.913307190 0.310123324 3.059860945 
-2.923080444 0.311060071 3.077823639 
-2.934194565 0.311768174 3.096712828 
-2.945617676 0.312307239 3.116740227 
-2.958540201 0.312754750 3.136433601 
-2.972156763 0.313017368 3.155750036 
-2.985309124 0.313386321 3.175352097 
-2.999063969 0.313788533 3.193950415 
-3.011777639 0.315732479 3.212068558 
-3.024358273 0.317126334 3.228947163 
-3.034787178 0.318890214 3.245224714 
-3.044220448 0.320067823 3.259740591 
-3.051376820 0.320652604 3.272107601 
-3.056259632 0.321097612 3.284743071 
-3.058428288 0.321315348 3.294505835 
-3.057661295 0.322234869 3.303649902 
-3.056946278 0.321189404 3.312439680 
-3.054411173 0.322201788 3.322099209 
-3.049398184 0.321815312 3.328833342 
-3.042363882 0.321148574 3.334455252 
-3.033736229 0.319985449 3.340675354 
-3.024157286 0.319118381 3.346759796 
-3.014150143 0.317699909 3.353539705 
-3.006223917 0.315233529 3.361644268 
-2.996221066 0.310043454 3.368211508 
-2.990604877 0.305228651 3.376351833 
-2.983173609 0.299781263 3.385935545 
-2.982404709 0.293942094 3.396713734 
-2.977868319 0.293040752 3.409009695 
-2.976905823 0.290497184 3.421087742 
-2.976094246 0.285780549 3.433176517 
-2.974887848 0.283026636 3.445388794 
-2.974903822 0.279764235 3.459897041 
-2.974186182 0.278756201 3.476360798 
-2.973082542 0.278026223 3.490742445 
-2.971621752 0.278184354 3.515404463 
-2.970286369 0.278924704 3.535638332 
-2.968193054 0.284534097 3.564471245 
-2.967463017 0.289702177 3.594101429 
-2.967406750 0.297310591 3.626075506 
-2.966812611 0.307905316 3.660321474 
-2.967758179 0.316959977 3.694313049 
-2.970725536 0.315860033 3.723376274 
-2.972249031 0.311432600 3.744734287 
-2.971512079 0.307449222 3.762390137 
-2.971440792 0.302842021 3.777817965 
-2.970535278 0.301573277 3.790098429 
-2.966915131 0.303534746 3.806004763 
-2.960462093 0.305516481 3.818886042 
-2.952609777 0.305402160 3.827054024 
-2.942689896 0.304285765 3.835329294 
-2.932964325 0.305726528 3.839578629 
-2.924803734 0.304647446 3.847451687 
-2.915860415 0.303034306 3.853894711 
-2.907035828 0.301294804 3.858046055 
-2.898858547 0.300355554 3.862694025 
-2.893343687 0.294481277 3.868000031 
-2.883653879 0.290670991 3.870906115 
-2.870661736 0.287753463 3.873615742 
-2.856371164 0.285117388 3.875578642 
-2.841101408 0.280914903 3.877565622 
-2.825830936 0.276084661 3.878591061 
-2.812709570 0.272897720 3.880465508 
-2.802178144 0.270865440 3.884175539 
-2.794130802 0.267779708 3.889790535 
-2.786736250 0.264908791 3.896675110 
-2.780000687 0.261429191 3.904773951 
-2.774464607 0.257944584 3.913203239 
-2.769000530 0.254414558 3.923417568 
-2.764212847 0.251687169 3.935639143 
-2.759082556 0.250702024 3.949688196 
-2.754257441 0.250257015 3.966212749 
-2.749582291 0.250188470 3.986555815 
-2.744644165 0.251271486 4.009825230 
-2.740254402 0.252743840 4.036801815 
-2.736324310 0.254687071 4.067521572 
-2.731893778 0.257261634 4.100876331 
-2.727203846 0.258488297 4.135736465 
-2.723103046 0.256873250 4.169732094 
-2.719778776 0.255948663 4.202853680 
-2.717141628 0.254496098 4.233971596 
-2.714337111 0.251864910 4.262411594 
-2.711915493 0.248067975 4.285674572 
-2.707542896 0.246270180 4.308959007 
-2.702975512 0.244688630 4.327904701 
-2.698637962 0.244094133 4.342544556 
-2.690396786 0.243119359 4.359047890 
-2.680934906 0.242201209 4.370147228 
-2.669888496 0.242939711 4.381193161 
-2.658753395 0.242493629 4.388385773 
-2.646269560 0.242168427 4.395853996 
-2.632916927 0.241675138 4.404027939 
-2.618222952 0.241015196 4.409559727 
-2.600906849 0.242397547 4.415172577 
-2.583267212 0.240696549 4.419867516 
-2.566212177 0.237332702 4.423495770 
-2.549426079 0.230283022 4.428798199 
-2.534534454 0.221833348 4.433760643 
-2.524415731 0.213341236 4.441990852 
-2.512295961 0.206881285 4.450886250 
-2.502815008 0.202075124 4.460536003 
-2.492618799 0.196981788 4.470085144 
-2.481963158 0.193533778 4.478343010 
-2.470047474 0.189731479 4.490176201 
-2.460516214 0.186356425 4.499409199 
-2.448228359 0.182123303 4.515241146 
-2.436997414 0.178734422 4.531217575 
-2.424216270 0.177449584 4.550248146 
-2.409995079 0.176596284 4.573615074 
-2.396845341 0.172831774 4.599163055 
-2.383792400 0.168730140 4.625756264 
-2.369933844 0.164961934 4.649514198 
-2.358196974 0.161603928 4.677806854 
-2.348275900 0.158921242 4.697561264 
-2.333918810 0.156358242 4.719479084 
-2.323107243 0.156367302 4.735301018 
-2.309882879 0.154341817 4.751654625 
-2.296831846 0.153181672 4.763403893 
-2.283195972 0.148128629 4.771570206 
-2.271204948 0.144327760 4.778537273 
-2.256924152 0.145203352 4.784655571 
-2.239821911 0.142902136 4.793432236 
-2.223360062 0.144075155 4.798470020 
-2.205912828 0.145725727 4.804535866 
-2.188645840 0.146602869 4.805091858 
-2.170250177 0.147298336 4.803407669 
-2.152735949 0.147246957 4.802527905 
-2.135395288 0.141344547 4.800823212 
-2.121862411 0.133446932 4.799197674 
-2.112051964 0.125494838 4.799037933 
-2.104276657 0.115792155 4.797465324 
-2.096988916 0.109816551 4.796942234 
-2.087568521 0.103332639 4.799256325 
-2.080797434 0.099696875 4.802834988 
-2.073391914 0.094184637 4.806805611 
-2.065460443 0.090175033 4.810523510 
-2.057226181 0.088461518 4.817474842 
-2.047831535 0.086080313 4.823927879 
-2.034852743 0.086172700 4.834517479 
-2.025067091 0.086198092 4.845093727 
-2.010528803 0.085927606 4.862690926 
-1.997662067 0.086208463 4.876253128 
-1.980762720 0.086031795 4.897169113 
-1.965112209 0.085177660 4.918284416 
-1.946733475 0.084353328 4.942589760 
-1.931576490 0.082469344 4.965750217 
-1.917220831 0.080080271 4.990977287 
-1.902795076 0.078628540 5.012947083 
-1.889473200 0.078014851 5.032241821 
-1.880934954 0.075438142 5.051217079 
-1.867599845 0.073256373 5.068366051 
-1.857187748 0.070241451 5.079165459 
-1.845310926 0.066639185 5.090497971 
-1.831658363 0.065268397 5.098668575 
-1.820227861 0.065462947 5.108652115 
-1.807966232 0.067064881 5.114192009 
-1.792194486 0.067180753 5.120925903 
-1.778672814 0.067174792 5.125524521 
-1.765292406 0.065914750 5.129877090 
-1.752301455 0.064600706 5.133296013 
-1.738074064 0.064066648 5.135722160 
-1.724061728 0.063923955 5.136407852 
-1.710963964 0.061127305 5.137600422 
-1.698971391 0.051269293 5.138764381 
-1.687245250 0.041954517 5.140007019 
-1.676239252 0.034871578 5.141274452 
-1.666085124 0.025500655 5.148094177 
-1.656576157 0.019888520 5.153326988 
-1.647537827 0.016105413 5.158431053 
-1.638405323 0.012579441 5.162154198 
-1.630087852 0.010002136 5.165389061 
-1.620316505 0.006643772 5.170194626 
-1.611683965 0.004983902 5.174461365 
-1.600959420 0.002048612 5.181853771 
-1.590571761 -0.000008345 5.189750671 
-1.577939749 -0.000416517 5.199066162 
-1.564762592 -0.001180887 5.210886955 
-1.553198934 -0.003002286 5.224440575 
-1.535088778 -0.003235698 5.242300034 
-1.522534490 -0.006645441 5.260890961 
-1.501549721 -0.006897211 5.281014442 
-1.483392000 -0.007877469 5.302645683 
-1.464869976 -0.007521987 5.323093414 
-1.447042942 -0.006749392 5.342721939 
-1.430616140 -0.005899906 5.360669136 
-1.417458415 -0.006094337 5.374176979 
-1.404035211 -0.007653117 5.387630463 
-1.392423511 -0.008565307 5.396839142 
-1.381545305 -0.009052992 5.405412674 
-1.371422410 -0.010879397 5.411498070 
-1.361941576 -0.011857986 5.415249825 
-1.352354288 -0.011466622 5.419387817 
-1.342346907 -0.011180162 5.422269821 
-1.332505465 -0.011939526 5.426081657 
-1.322021008 -0.012548923 5.429975033 
-1.311347008 -0.012732983 5.433984756 
-1.300624132 -0.012795448 5.437064171 
-1.289735675 -0.011815786 5.440162659 
-1.279378653 -0.010709763 5.442518711 
-1.268509388 -0.009819031 5.443937302 
-1.258329153 -0.010999680 5.443224907 
-1.247409105 -0.015382290 5.444112778 
-1.236545444 -0.024033070 5.442760468 
-1.225844979 -0.032714128 5.441060066 
-1.214736938 -0.038635492 5.440523148 
-1.204569817 -0.043075800 5.439911842 
-1.195530653 -0.045707107 5.440774918 
-1.185840607 -0.050448298 5.441892624 
-1.178477764 -0.056820035 5.447280884 
-1.170089245 -0.060775638 5.450148582 
-1.161417723 -0.063542843 5.452893257 
-1.152852535 -0.066028237 5.456627846 
-1.140899181 -0.068187952 5.464004040 
-1.129576921 -0.069822311 5.471390724 
-1.116745472 -0.069540501 5.479513168 
-1.103270531 -0.071072340 5.493637085 
-1.084442973 -0.069953442 5.508730888 
-1.066072226 -0.069770217 5.527982712 
-1.046451807 -0.069896102 5.549034119 
-1.025047660 -0.068119764 5.567336082 
-1.002972603 -0.074252963 5.594667912 
-0.980278492 -0.075227737 5.616248131 
-0.957746625 -0.074427128 5.637832642 
-0.936464429 -0.073869586 5.659497261 
-0.917809248 -0.076476812 5.679652214 
-0.899919868 -0.077169180 5.696357727 
-0.885506868 -0.079752803 5.709325790 
-0.871054292 -0.080406666 5.720415592 
-0.859459877 -0.082233787 5.727866173 
-0.845317841 -0.086396575 5.736372948 
-0.833765507 -0.086000681 5.738976479 
-0.820664167 -0.085491657 5.742328167 
-0.806108713 -0.084924936 5.746456146 
-0.792795420 -0.083468199 5.748731136 
-0.781106830 -0.082623005 5.749390602 
-0.769810438 -0.082564354 5.747712135 
-0.758339882 -0.082735062 5.745632172 
-0.745854616 -0.083228111 5.741050243 
-0.734286427 -0.082613945 5.733455658 
-0.722802758 -0.094286680 5.732820988 
-0.710245490 -0.099891424 5.728919983 
-0.698231220 -0.104485989 5.726601601 
-0.685830951 -0.109567761 5.726176262 
-0.674961567 -0.113198996 5.728995323 
-0.661575198 -0.114871979 5.729549408 
-0.649667501 -0.115228891 5.729460716 
-0.635703564 -0.115537524 5.731980324 
-0.621290207 -0.116116047 5.733653069 
-0.606320262 -0.117901802 5.739112854 
-0.588414192 -0.117007256 5.745426178 
-0.568126559 -0.116199017 5.753978252 
-0.549878597 -0.114098787 5.762421608 
-0.526449800 -0.110732079 5.775149345 
-0.502460837 -0.107190132 5.792425156 
-0.477311850 -0.105802536 5.810142517 
-0.451486826 -0.102291584 5.821396828 
-0.426075578 -0.108774424 5.844004154 
-0.408311367 -0.114406109 5.863149643 
-0.386697650 -0.111629009 5.873374462 
-0.362992764 -0.111660957 5.887789726 
-0.346554756 -0.111730099 5.897688866 
-0.328109741 -0.112532616 5.907241344 
-0.313365102 -0.115038157 5.912240505 
-0.299537063 -0.116768360 5.913146019 
-0.287448645 -0.117317915 5.912205696 
-0.274039745 -0.113439083 5.909533024 
-0.262712240 -0.108122826 5.904788017 
-0.252787828 -0.100785971 5.898249149 
-0.244355798 -0.094245434 5.889339447 
-0.236030221 -0.091919899 5.879941940 
-0.226302266 -0.093255281 5.870815277 
-0.215827584 -0.093651533 5.864492893 
-0.204319119 -0.092899799 5.861807346 
-0.192965508 -0.094051123 5.860684395 
-0.184094667 -0.095646381 5.858331680 
-0.169811130 -0.097408056 5.854295731 
-0.156146884 -0.096738100 5.853017807 
-0.141441703 -0.093619108 5.854095936 
-0.124751568 -0.090112925 5.858944893 
-0.107426643 -0.086213350 5.866524220 
-0.088961124 -0.082427740 5.876095772 
-0.070742249 -0.079346418 5.886225700 
-0.052534103 -0.075932264 5.898144722 
-0.036062717 -0.071387053 5.908675194 
-0.020006895 -0.067937374 5.918285370 
-0.004682541 -0.064774513 5.924742699 
0.010119319 -0.061132908 5.929038048 
0.024808884 -0.058731079 5.930153847 
0.038832307 -0.057276964 5.928007603 
0.052935362 -0.054989576 5.923464775 
0.065677404 -0.050365448 5.916223526 
0.080053091 -0.044768333 5.909039497 
0.089550257 -0.033024788 5.894474030 
0.101089478 -0.025254965 5.885217667 
0.115021586 -0.022041082 5.872479439 
0.127515674 -0.026645184 5.862422466 
0.137634397 -0.029898643 5.853923321 
0.147470713 -0.034589052 5.843405724 
0.155937195 -0.037983656 5.836292267 
0.164010286 -0.042048454 5.831151009 
0.171761990 -0.045454979 5.826685905 
0.177782655 -0.046998501 5.820556641 
0.183202624 -0.047414541 5.813174248 
0.187471271 -0.047196388 5.807416439 
0.192916274 -0.048780918 5.799899101 
0.197702587 -0.048499823 5.794507980 
0.203760266 -0.048475742 5.789082527 
0.212273955 -0.049012661 5.785570145 
0.225569308 -0.047514915 5.784424782 
0.239156008 -0.045393705 5.783076763 
0.253500819 -0.043548346 5.781907558 
0.274970770 -0.039849520 5.781351089 
0.297502279 -0.035880566 5.782276154 
0.322733760 -0.029557228 5.784359932 
0.349387050 -0.024455547 5.785701275 
0.378727913 -0.020580769 5.788565159 
0.406635284 -0.021148205 5.791258812 
0.428319156 -0.023406982 5.794149399 
0.447131515 -0.024404287 5.795248508 
0.461797595 -0.026051521 5.794938564 
0.474973917 -0.025421381 5.795902252 
0.488263756 -0.026586056 5.793610573 
0.501074076 -0.026546955 5.793060780 
0.514426351 -0.025530577 5.791271210 
0.531153679 -0.023910284 5.788939476 
0.550899863 -0.020903587 5.787166595 
0.575000465 -0.020181179 5.786695480 
0.594696641 -0.022071838 5.786442757 
0.620360970 -0.024611712 5.785044193 
0.635585368 -0.028189659 5.781466961 
0.651785851 -0.030824900 5.777982712 
0.660621643 -0.034362078 5.772316933 
0.675346255 -0.034209967 5.769213676 
0.681327879 -0.041686058 5.768674850 
0.692018270 -0.043527603 5.766523838 
0.702790201 -0.044525862 5.763845444 
0.711757600 -0.045484304 5.762013912 
0.719146788 -0.047760010 5.760138035 
0.722953141 -0.050197601 5.757604599 
0.726040363 -0.053323030 5.753338814 
0.730786324 -0.057654619 5.748137474 
0.734104216 -0.059516907 5.744221687 
0.737427354 -0.062187195 5.741250992 
0.740776956 -0.066033602 5.737874031 
0.744159222 -0.069220304 5.733582497 
0.747514129 -0.070649147 5.729510307 
0.751450658 -0.070817232 5.724655151 
0.754530311 -0.072653055 5.718642235 
0.756507754 -0.074617624 5.712101460 
0.758095503 -0.075222254 5.704043388 
0.760693192 -0.074091911 5.696499825 
0.763153195 -0.071093321 5.687902927 
0.764382839 -0.066323280 5.680294037 
0.767245471 -0.061850309 5.668984413 
0.768583775 -0.058500051 5.659504890 
0.770695865 -0.058954716 5.649998665 
0.773779988 -0.063699007 5.640032291 
0.776576340 -0.068685532 5.628993511 
0.777906239 -0.071210623 5.616756916 
0.778696001 -0.074954510 5.604113579 
0.779199660 -0.079280853 5.591262341 
0.781496465 -0.086865902 5.579309464 
0.787866473 -0.095545053 5.568830490 
0.796032429 -0.098014116 5.558880806 
0.807080925 -0.091877937 5.549840927 
0.821053088 -0.087179661 5.541053295 
0.837234676 -0.081398487 5.526926994 
0.854309142 -0.076544046 5.514961243 
0.874511242 -0.066252708 5.498547554 
0.898329437 -0.052836657 5.484807968 
0.926087916 -0.037783861 5.471351624 
0.958673835 -0.019696236 5.456947327 
0.994357347 -0.001088381 5.442444324 
1.031398773 0.014501333 5.424380302 
1.062579155 0.012466908 5.414293289 
1.091595292 0.009209871 5.396936417 
1.111479521 0.004147530 5.385595322 
1.130564213 0.001677990 5.374734879 
1.150302768 -0.002045631 5.365123749 
1.170993805 -0.004761457 5.357341766 
1.192492723 -0.007172823 5.349705696 
1.209655643 -0.005187273 5.342864513 
1.232240677 -0.006373644 5.334808350 
1.246279359 -0.007325649 5.327603817 
1.252665043 -0.011195183 5.315785885 
1.252154231 -0.012722015 5.302527428 
1.245220184 -0.010450125 5.286305428 
1.236275315 -0.005946875 5.271531105 
1.224799633 0.000354290 5.258205414 
1.212550044 0.007834911 5.247924805 
1.199812174 0.011673212 5.240849495 
1.185366511 0.008686066 5.235284805 
1.171247959 0.003937960 5.228006363 
1.161773086 0.002148628 5.221963882 
1.157068372 0.000209570 5.215615749 
1.152961016 -0.001376629 5.208252907 
1.149453640 -0.002558470 5.201668739 
1.147598863 -0.002601385 5.193879128 
1.148424029 -0.003110647 5.186369896 
1.151759386 -0.004448652 5.178226471 
1.159135342 -0.007354736 5.168638229 
1.167625785 -0.006514311 5.154959679 
1.180196166 -0.009619951 5.141617298 
1.196400046 -0.007225275 5.123372078 
1.213094831 -0.009366751 5.106668949 
1.230870962 -0.013525963 5.089774132 
1.247949243 -0.020551920 5.075610638 
1.262706041 -0.030231953 5.059319496 
1.274714112 -0.038497686 5.044757843 
1.284055114 -0.043109894 5.028899193 
1.287230968 -0.049481153 5.014872551 
1.287937164 -0.057157636 5.001530170 
1.285404325 -0.061122656 4.986710548 
1.281919241 -0.062123060 4.970303059 
1.274758816 -0.056865573 4.959518909 
1.268090248 -0.054239869 4.947234631 
1.266260862 -0.066226959 4.940176964 
1.257926106 -0.080596447 4.929893017 
1.253600478 -0.092067957 4.921187401 
1.251419067 -0.101007223 4.912387848 
1.250776529 -0.106490254 4.905490875 
1.252935052 -0.114781260 4.898741722 
1.255571961 -0.120040178 4.891566753 
1.258626223 -0.124143362 4.884346962 
1.263193369 -0.125537157 4.876113415 
1.268413544 -0.125125289 4.866630077 
1.276357293 -0.126235604 4.855070114 
1.284650326 -0.124138474 4.842583179 
1.296592712 -0.120444775 4.828458309 
1.311487794 -0.118551016 4.813498497 
1.330505371 -0.118486047 4.798210144 
1.352505922 -0.122233629 4.784609318 
1.377539158 -0.123011112 4.767223358 
1.403332710 -0.128197551 4.753430367 
1.431077600 -0.129369736 4.733096600 
1.459628105 -0.136196017 4.718533993 
1.482621312 -0.137997866 4.697650909 
1.501282930 -0.143172503 4.681120396 
1.516030669 -0.148988962 4.664874554 
1.527443171 -0.152445436 4.649853706 
1.536212325 -0.156627774 4.635669708 
1.544269323 -0.160835028 4.620263100 
1.549650431 -0.161343336 4.605350971 
1.555692196 -0.160608053 4.588685989 
1.561101794 -0.158555984 4.572374821 
1.565078259 -0.154998302 4.556230545 
1.572675467 -0.155666947 4.538163662 
1.577768922 -0.155513763 4.522411346 
1.580821633 -0.153108001 4.505656719 
1.586162567 -0.156158209 4.489950180 
1.591471076 -0.168177128 4.476322174 
1.597754240 -0.184658289 4.465065002 
1.601848841 -0.200091839 4.454349518 
1.606419086 -0.214223266 4.442259789 
1.609832168 -0.224033475 4.435795784 
1.612509727 -0.229779482 4.426210403 
1.612997532 -0.231714129 4.418073654 
1.614828348 -0.234306574 4.406088829 
1.614531398 -0.234516144 4.396073341 
1.614631295 -0.235303521 4.387076855 
1.621453285 -0.236709833 4.374561787 
1.629075050 -0.236558199 4.359560966 
1.638910294 -0.233789325 4.344557762 
1.651744127 -0.230903745 4.326540947 
1.667539835 -0.227216363 4.305546761 
1.685482025 -0.226517081 4.285130978 
1.705575943 -0.222186923 4.259562492 
1.727673173 -0.218336701 4.232208252 
1.749115467 -0.216105580 4.200941086 
1.769207239 -0.207274318 4.172024250 
1.790103912 -0.200577617 4.149698257 
1.807785749 -0.192903399 4.118978500 
1.819074035 -0.191597223 4.095002651 
1.824243426 -0.192880988 4.077810287 
1.829857826 -0.196912646 4.068492889 
1.833862066 -0.196708798 4.051651955 
1.837205887 -0.195465922 4.035958767 
1.839747548 -0.194081783 4.021722794 
1.842347383 -0.192810655 4.008658886 
1.843049884 -0.191705346 3.996807575 
1.842454672 -0.189633608 3.984594345 
1.839965582 -0.188654900 3.971854687 
1.835196376 -0.187363029 3.958751202 
1.828686118 -0.184992075 3.946026087 
1.821011305 -0.183740139 3.933565140 
1.813237429 -0.184976578 3.920826435 
1.807265401 -0.186844707 3.908080578 
1.803818226 -0.190346122 3.897539616 
1.800873756 -0.193711400 3.888659716 
1.799172759 -0.194208384 3.881096840 
1.798866749 -0.195132971 3.873351574 
1.798719645 -0.198019743 3.866076469 
1.798002720 -0.201405168 3.860367537 
1.796232700 -0.202892542 3.856132984 
1.796706200 -0.204862118 3.851530552 
1.797446012 -0.206626534 3.847219706 
1.799137115 -0.208104968 3.843699694 
1.800146222 -0.208627105 3.837942839 
1.803735256 -0.208227992 3.830338478 
1.809087038 -0.207923889 3.822120190 
1.818579435 -0.207616806 3.807275772 
1.828691006 -0.207896352 3.793124676 
1.842111349 -0.207173109 3.775741577 
1.857851744 -0.203471184 3.753463268 
1.869102716 -0.199708700 3.734961510 
1.884804964 -0.193468213 3.706954479 
1.899075270 -0.186193824 3.679856777 
1.910485268 -0.179725409 3.655917168 
1.927178621 -0.168727040 3.621896744 
1.943214774 -0.159267426 3.590117216 
1.961000681 -0.154474139 3.555709124 
1.979776859 -0.152411222 3.523034096 
1.995010614 -0.152164698 3.496454477 
2.010705233 -0.150291562 3.466881990 
2.022373438 -0.151458502 3.446272373 
2.033364773 -0.153380513 3.430312157 
2.041463375 -0.156705379 3.417218924 
2.048311472 -0.160604596 3.403919458 
2.052348375 -0.162744045 3.390549898 
2.052376270 -0.164579034 3.381887674 
2.056522846 -0.164801836 3.368632793 
2.055910110 -0.162445188 3.356373549 
2.055344105 -0.159947991 3.344362497 
2.055409908 -0.155520558 3.329739094 
2.053127050 -0.153261185 3.316614866 
2.049329042 -0.151088119 3.302842379 
2.043698311 -0.150565147 3.288345814 
2.035964251 -0.147825718 3.272245169 
2.027318239 -0.140887737 3.254125118 
2.018131256 -0.135818362 3.236094236 
2.010888815 -0.135999560 3.218212366 
2.006651163 -0.141294837 3.197229624 
2.005115747 -0.151616573 3.179114342 
2.007943630 -0.162379980 3.162130594 
2.011333466 -0.169239521 3.145402670 
2.013923407 -0.172033906 3.128431797 
2.014649153 -0.175365448 3.107931614 
2.014351606 -0.181637883 3.088145256 
2.014747381 -0.187475562 3.069973230 
2.013470650 -0.187679291 3.048493147 
2.012658119 -0.186406493 3.025479317 
2.010805845 -0.182664752 3.001500845 
2.010382652 -0.177280664 2.974761248 
2.009217978 -0.171059132 2.949697733 
2.011405468 -0.160526633 2.916698933 
2.013215780 -0.156214595 2.887614965 
2.022068739 -0.162318707 2.855395317 
2.019707680 -0.162150621 2.826396704 
2.019247770 -0.162067533 2.799243212 
2.018277407 -0.162021875 2.783383369 
2.017706394 -0.160096884 2.759696722 
2.013241053 -0.157837391 2.743077517 
2.008992672 -0.156297207 2.729403257 
2.000478745 -0.156380117 2.719066143 
1.999124885 -0.157750428 2.707145929 
1.991721869 -0.154230356 2.696209192 
1.982765913 -0.151365459 2.686711073 
1.976225615 -0.152274847 2.678600073 
1.966947556 -0.150547206 2.673579693 
1.953854322 -0.150113761 2.669803858 
1.942321658 -0.152747333 2.666593313 
1.931447983 -0.160810232 2.662573099 
1.924515486 -0.168607593 2.654730320 
1.918101311 -0.176712155 2.643925428 
1.914405823 -0.187228978 2.631633520 
1.912799120 -0.190980792 2.618970394 
1.910534263 -0.192276299 2.599306345 
1.906333804 -0.190231442 2.580174446 
1.907253861 -0.188872218 2.565527201 
1.905707836 -0.187264383 2.542599201 
1.904958606 -0.182262957 2.517325640 
1.903163195 -0.178653836 2.493168592 
1.901023626 -0.170092344 2.463555574 
1.903766155 -0.165592909 2.436089516 
1.904742241 -0.156985879 2.400241137 
1.905271292 -0.150639653 2.359119415 
1.906711578 -0.146800756 2.323879719 
1.907394648 -0.142369926 2.293065786 
1.906516433 -0.140696287 2.263925314 
1.903763890 -0.140215635 2.241381168 
1.898828626 -0.139254987 2.216138840 
1.894468307 -0.138843775 2.200738907 
1.886946201 -0.139182508 2.182118177 
1.879431248 -0.140468895 2.169468403 
1.870839834 -0.139430821 2.159723043 
1.859308958 -0.138123035 2.150709867 
1.847369432 -0.134353757 2.145334005 
1.835883617 -0.130154073 2.141626596 
1.826217771 -0.128827274 2.136484146 
1.818130493 -0.129891634 2.131661654 
1.806602001 -0.129206538 2.122928858 
1.799056053 -0.128908277 2.113055706 
1.789357424 -0.129420936 2.098557949 
1.781257033 -0.130290985 2.082168579 
1.773211837 -0.127280295 2.064851522 
1.765310526 -0.121838510 2.042629957 
1.759458661 -0.116835177 2.017805099 
1.755913734 -0.113335669 1.990319014 
1.753084660 -0.108908713 1.960211277 
1.746709585 -0.099674702 1.930934906 
1.746140718 -0.096947014 1.899093390 
1.743591070 -0.091896236 1.871920705 
1.739856482 -0.087004781 1.845945954 
1.736200452 -0.084496439 1.823602319 
1.729567528 -0.083490133 1.804027081 
1.723109245 -0.082561493 1.785325170 
1.716522932 -0.079156816 1.768974781 
1.709115982 -0.077106893 1.747980714 
1.703490019 -0.073846400 1.730952978 
1.695374250 -0.070293367 1.714068890 
1.686877608 -0.065017879 1.696154356 
1.678018808 -0.060575366 1.677581906 
1.668114305 -0.055177569 1.658871770 
1.660399914 -0.053687096 1.639317513 
1.648983955 -0.046169758 1.618391991 
1.635105610 -0.034694135 1.601276636 
1.624684215 -0.034618556 1.585254431 
1.613489747 -0.037375569 1.566932321 
1.603688717 -0.044328690 1.552780628 
1.596292973 -0.054134130 1.539114952 
1.590201139 -0.061542451 1.528302789 
1.582527637 -0.067276835 1.517282248 
1.575860262 -0.069629967 1.508823395 
1.570054054 -0.074896395 1.503340125 
1.562350750 -0.079052031 1.499589920 
1.556992054 -0.083604574 1.497124672 
1.547544718 -0.085775852 1.495734215 
1.539224267 -0.085499167 1.495336175 
1.532775640 -0.086812377 1.494458914 
1.526177406 -0.088057846 1.491919994 
1.520976067 -0.088363379 1.490411758 
1.516279697 -0.088036001 1.485626936 
1.511332989 -0.085147023 1.477956891 
1.511360288 -0.084204227 1.467976928 
1.504541874 -0.078615338 1.446870208 
1.499401569 -0.077345580 1.428503394 
1.496981740 -0.070378572 1.408360362 
1.494071007 -0.067976832 1.388308167 
1.490656853 -0.065615684 1.363241673 
1.485594988 -0.060426205 1.340909719 
1.478781343 -0.058632046 1.316601276 
1.474949718 -0.059023589 1.290391564 
1.471557379 -0.056988776 1.271386504 
1.470369935 -0.057651460 1.253434658 
1.464069843 -0.044990480 1.240392208 
1.457878709 -0.039425015 1.226955771 
1.454742670 -0.035267442 1.229274750 
1.450235605 -0.032954007 1.222896457 
1.445457458 -0.032308847 1.216562629 
1.439687490 -0.031297103 1.212274790 
1.432472110 -0.029938668 1.206007600 
1.425886631 -0.026600212 1.202542663 
1.418468952 -0.023060232 1.197906375 
1.410196781 -0.019158781 1.192903519 
1.400822043 -0.014469519 1.188227773 
1.391517997 -0.010190904 1.184390664 
1.377200007 -0.003923282 1.179202795 
1.362454772 0.001878597 1.174804926 
1.345616937 0.008398637 1.168945789 
1.326903224 0.013533667 1.160066605 
1.307645440 0.016690642 1.149541259 
1.287528992 0.019730791 1.138371825 
1.267594576 0.024303794 1.127064347 
1.249296069 0.024351120 1.116704583 
1.228785157 0.017872632 1.108941317 
1.208471060 0.007011682 1.101828098 
1.192428231 -0.000589058 1.092124581 
1.180173755 -0.005458564 1.084830642 
1.169483423 -0.009520933 1.081342816 
1.157642961 -0.012996152 1.080189466 
1.146742702 -0.014334582 1.078196526 
1.137746572 -0.016068727 1.078087807 
1.128176093 -0.018892758 1.074094415 
1.119577169 -0.019826587 1.070524693 
1.112451077 -0.019593704 1.066498995 
1.105562806 -0.018900292 1.060255766 
1.096327662 -0.018165130 1.052619934 
1.088232160 -0.018925991 1.043837667 
1.079153538 -0.019555300 1.032008171 
1.068738937 -0.017769855 1.018697023 
1.055578113 -0.013827279 1.003904581 
1.039740682 -0.008138571 0.987447381 
1.023368478 -0.001166780 0.968708158 
1.008259535 0.004136838 0.951413095 
0.983195961 0.014245763 0.924034894 
0.963502765 0.023280390 0.901821971 
0.946267128 0.035664424 0.884083688 
0.923285604 0.046759970 0.862625659 
0.906356454 0.051388398 0.846076369 
0.889200389 0.058007352 0.830654502 
0.873148263 0.064535141 0.817028821 
0.862754941 0.063608192 0.808358967 
0.846174836 0.067868724 0.797377706 
0.833715975 0.072952583 0.791177034 
0.822300375 0.076494373 0.786876917 
0.813790500 0.077075996 0.784584820 
0.802306771 0.081737466 0.776151538 
0.792517543 0.084294684 0.777451277 
0.782392502 0.086566932 0.775040507 
0.773485959 0.088605449 0.776275277 
0.764903009 0.089314692 0.778718889 
0.752910614 0.092847958 0.779970169 
0.746612549 0.095541880 0.781962931 
0.733648121 0.089307413 0.782592058 
0.723840833 0.078304470 0.784278989 
0.716253579 0.067048095 0.785448849 
0.706802309 0.059943944 0.783180058 
0.697848320 0.050817415 0.782986760 
0.691429079 0.047805950 0.782474101 
0.688104331 0.041346505 0.774378181 
0.684031069 0.035574496 0.774445236 
0.681920946 0.032991514 0.777441084 
0.675842226 0.028535083 0.779186904 
0.672763646 0.028931245 0.783366203 
0.669344425 0.027697995 0.785272479 
0.664731860 0.025271580 0.783295929 
0.657665610 0.026704282 0.782966614 
0.649389088 0.025780633 0.778085828 
0.638895512 0.025720447 0.772006452 
0.627437174 0.027986154 0.766872406 
0.613148689 0.029683560 0.759396434 
0.596236885 0.031804889 0.751448035 
0.576607943 0.035262540 0.742595971 
0.556528568 0.040727392 0.732848763 
0.533494353 0.044104323 0.722935379 
0.501121044 0.050704867 0.707512617 
0.475590587 0.054696530 0.694137692 
0.440852523 0.063809142 0.677487791 
0.412395179 0.068302765 0.661552191 
0.386101693 0.081638291 0.646643221 
0.359472424 0.081156820 0.632147193 
0.331239998 0.076816842 0.619101167 
0.302741170 0.077692911 0.606098294 
0.283822924 0.078462690 0.597655356 
0.267007589 0.076840386 0.593920887 
0.247941941 0.075000688 0.591228724 
0.231088132 0.076401666 0.593753219 
0.216370612 0.078215420 0.595735788 
0.200911701 0.079233214 0.598913252 
0.188728034 0.080806091 0.601395726 
0.178808808 0.089977086 0.612218440 
0.163865358 0.096649826 0.618553638 
0.151847303 0.100591600 0.627770662 
0.136106178 0.104393721 0.634956002 
0.120543972 0.108401522 0.643775702 
0.115848847 0.119019419 0.650787771 
0.088197254 0.109137937 0.656015158 
0.067826718 0.100286290 0.659489930 
0.053603292 0.096636310 0.660150170 
0.038858473 0.088226095 0.662063181 
0.017131768 0.084423974 0.658692181 
0.003245994 0.084160641 0.660358787 
-0.011246316 0.084305912 0.658544898 
-0.026349928 0.080635622 0.657604873 
-0.045905076 0.078158125 0.658771873 
-0.061769672 0.077409402 0.659209132 
-0.078444421 0.078113437 0.659533978 
-0.096137516 0.080657735 0.660875142 
-0.120622076 0.084709659 0.660457313 
-0.146130055 0.088566899 0.659766972 
-0.175156116 0.093509689 0.656874895 
-0.204748198 0.100687161 0.653003097 
-0.242429376 0.103364408 0.645975173 
-0.278124958 0.106304958 0.638940990 
-0.312711000 0.110922575 0.632012486 
-0.341654181 0.115133464 0.629848778 
-0.373442918 0.110455468 0.621840298 
-0.399044544 0.107648939 0.618746221 
-0.421447039 0.105619669 0.616639555 
-0.441589683 0.104696140 0.616842389 
-0.459296405 0.105886444 0.620353758 
-0.474930882 0.106535688 0.625449479 
-0.487933367 0.107275933 0.632370830 
-0.498182207 0.107891917 0.642144680 
-0.506735086 0.107587785 0.653388083 
-0.513641894 0.106486350 0.665741622 
-0.519016266 0.106194347 0.679763675 
-0.522850871 0.106851906 0.696227610 
-0.525137186 0.109423861 0.716329932 
-0.526520431 0.112645596 0.737847447 
-0.528723478 0.112218544 0.756699204 
-0.532064557 0.107528925 0.772886753 
-0.534261405 0.098486483 0.786431670 
-0.536295176 0.087922513 0.797926068 
-0.540472567 0.080378979 0.806362212 
-0.546344280 0.076536685 0.811166048 
-0.554857850 0.074572265 0.813794315 
-0.563941360 0.071265832 0.814081371 
-0.575111568 0.066769809 0.813522816 
-0.587738037 0.063087404 0.813569188 
-0.792972744 0.081783354 0.819372475 
-0.824429035 0.087958395 0.826158643 
-0.843588948 0.085903540 0.827290535 
-0.863568425 0.086941630 0.829930782 
-0.880571902 0.087455288 0.834224403 
-0.895952165 0.086640194 0.837589622 
-0.909645438 0.086879410 0.840449929 
-0.921409130 0.087756239 0.843669653 
-0.931133628 0.088209376 0.847165585 
-0.937554002 0.087807894 0.849278688 
-0.944226086 0.086463049 0.852117836 
-0.947593808 0.085472196 0.853646517 
-0.947377205 0.085000888 0.856791854 
-0.946186900 0.083603665 0.859989524 
-0.946127057 0.084978655 0.863503218 
-0.952161789 0.086192250 0.872368038 
-0.961514890 0.084327959 0.879050732 
-0.972826421 0.081998646 0.885866821 
-0.984945953 0.081118599 0.892392576 
-1.002351999 0.084324330 0.903809845 
-1.023105502 0.087715641 0.913200080 
-1.044918060 0.093686543 0.925408840 
-1.074269533 0.090899587 0.928411663 
-1.101462960 0.092336796 0.941840112 
-1.132846355 0.098440856 0.956549406 
-1.159322977 0.101061583 0.966847301 
-1.183894753 0.100760669 0.975210130 
-1.205486655 0.099823952 0.982650876 
-1.222557187 0.097388223 0.987527728 
-1.234832287 0.094671555 0.990433276 
-1.244156122 0.093234271 0.991837502 
-1.249641657 0.092854775 0.993036032 
-1.251760483 0.094415620 0.992613673 
-1.251569867 0.095124990 0.992213726 
-1.249430895 0.094226539 0.990287662 
-1.245364428 0.090378761 0.988297820 
-1.240873098 0.087188251 0.989557385 
-1.236957312 0.089047559 0.991389751 
-1.234881878 0.089850336 0.991924405 
-1.234661579 0.087616891 0.991600871 
-1.238071442 0.084640414 0.989857674 
-1.241661429 0.082705908 0.987950325 
-1.247080207 0.080223978 0.985625684 
-1.251989961 0.078193530 0.982857943 
-1.257162452 0.075215876 0.978813052 
-1.262251377 0.072851270 0.973938346 
-1.266731262 0.071128674 0.969635069 
-1.271320820 0.069113925 0.964990973 
-1.272966266 0.068881631 0.962098956 
-1.276179314 0.067029670 0.956501007 
-1.276746988 0.064633355 0.950205684 
-1.276678324 0.060908906 0.942786872 
-1.275908351 0.056751020 0.935398698 
-1.274163961 0.055189759 0.930101871 
-1.274436474 0.051626094 0.919394135 
-1.273831367 0.048899047 0.909795761 
-1.272722363 0.046471454 0.900375903 
-1.272734284 0.043847933 0.891232133 
-1.272346973 0.041503161 0.881700873 
-1.273050785 0.039638501 0.873546422 
-1.273791313 0.036339242 0.862608910 
-1.273549080 0.035292137 0.857213974 
-1.273315907 0.031792518 0.847717643 
-1.272734642 0.029245816 0.839354992 
