VERSION .7
FIELDS x y z
SIZE 4 4 4
TYPE F F F
COUNT 1 1 1
WIDTH 1460
HEIGHT 1
VIEWPOINT 0 0 0 1 0 0 0
POINTS 1460
DATA ascii
 -1.1324625 0.4784070 8.7391243
 3.9434552 0.9083621 7.4366212
 3.8317456 0.9951752 7.8223038
 4.5602703 0.7547523 7.5352306
 7.0505381 0.5010129 7.3048267
 4.4785471 0.7638831 7.6275840
 3.7958274 0.9923564 7.7770133
 7.0607953 0.5093728 7.3936996
 5.3084822 0.7345812 7.6417751
 5.4520392 0.6920015 7.7383580
 3.6949286 1.0608954 8.0420465
 3.7159643 1.0660493 8.0776653
 4.2401671 0.8633696 7.9734678
 -3.3616159 1.3696878 10.0975657
 -3.2308764 1.3417865 11.1694555
 5.3345089 0.6295444 9.4816570
 -2.5106609 1.2393140 11.4938221
 -2.5316250 1.2431313 11.6316452
 -2.0784073 1.2056894 11.4840193
 -3.7002401 1.3330438 12.2475853
 -3.6375179 1.3097500 12.0212860
 -3.4398992 1.3145065 12.2160559
 6.1812949 0.5514147 10.9703932
 9.1477118 -0.0102321 11.4736538
 9.3729858 -0.0214955 11.7183189
 9.7742310 -0.0750946 11.5048571
 -2.2208602 1.1300696 13.4828424
 11.1674204 -0.3853713 12.1552610
 1.4637773 0.1955096 13.4492321
 11.2780838 -0.3936587 12.2762194
 7.6924181 0.3748701 13.3519220
 8.3900833 0.1452899 13.7256365
 2.1780071 0.1498530 16.5123138
 6.6005878 0.0770083 16.2804165
 6.6083961 0.0797875 16.2876053
 2.3462908 -0.2729851 16.8821983
 -0.7813134 0.1805632 1.2073590
 0.1313163 0.4964276 1.9657897
 0.1557498 0.5247251 1.9892406
 0.0286495 0.5111715 2.1078675
 0.0290674 0.5110335 2.1089258
 -1.1094062 0.3633909 2.0434723
 -1.0875639 0.4242815 2.4741983
 0.0164004 0.6660134 2.0693140
 0.2159449 0.7778315 1.9621912
 0.0282943 0.8630080 2.0634127
 0.0201392 0.5237920 2.1566753
 0.2043076 0.9096577 1.9722023
 0.1828197 1.0776252 1.9924536
 -0.1374857 0.5271693 2.2495959
 -0.3473479 0.7759531 2.3099201
 -0.1613469 0.9088418 2.1957407
 -0.5610105 0.5420879 2.5429933
 -0.4469000 0.8254492 2.3827682
 -0.2578343 0.9990630 2.2667768
 -0.3992885 1.0445262 2.3617299
 -0.5359112 1.0183991 2.4348147
 -0.3518310 0.5622281 2.4835196
 -0.2399876 0.5429624 2.4677279
 -0.5562913 1.0211276 2.4575539
 -0.2348510 0.5489131 2.4934008
 -0.2284973 0.5495603 2.4870701
 -0.5291017 1.1212498 2.4508820
 -0.5270333 1.1196966 2.4464426
 -0.9933472 0.7798082 2.7273328
 -0.7954779 0.9008937 2.6030943
 -1.1132643 0.5417904 2.8821518
 -0.8438525 0.9225414 2.6609032
 -1.3873360 0.7206560 2.9476006
 -1.1548301 0.8165241 2.8363199
 -0.0162059 0.5079575 2.4819393
 -1.1546636 0.8165342 2.8374271
 -0.8719895 1.0353897 2.6632383
 -1.0748401 0.9241059 2.7965639
 -1.1587189 0.8463463 2.8444166
 -1.1581328 0.8527894 2.8598456
 -0.4251962 0.5389982 2.7093005
 -1.4027696 0.8102823 2.9960968
 -0.6479081 0.5619380 2.8214588
 -1.0034604 1.1137209 2.7580407
 -0.4330163 0.5464981 2.7140365
 0.2485321 0.4644889 2.5313363
 -1.1091911 1.1329474 2.8343103
 0.2322543 0.4572496 2.5239356
 -1.5497296 0.7651554 3.1065471
 -0.8030013 0.5490845 2.9306018
 -1.2619720 1.1889023 2.9325669
 -1.0458654 0.5473672 2.9983108
 -0.6954054 0.5389587 2.9438190
 -0.6932212 0.5395539 2.9479444
 -0.1750747 0.5218098 2.7935724
 -0.3288505 0.5005164 2.8873003
 -0.7943425 0.5853546 3.0331523
 -1.2182813 0.6074094 3.3915606
 -0.4307748 0.5288897 3.0088387
 -1.3435864 0.5916582 3.3344188
 -1.6347940 1.4400241 3.2013466
 -1.6332970 1.4426996 3.1981997
 -1.0836245 0.5574222 3.2789161
 -1.0831094 0.5578310 3.2830591
 -1.0717422 0.5552717 3.4227173
 -1.0535758 0.5456080 3.3946681
 -0.0530510 0.4720402 3.2114019
 -0.0414441 0.4834999 3.2832901
 -1.8560638 0.8894630 4.4854131
 0.1561012 0.4107642 3.8348715
 -0.3638009 0.4976813 4.2204185
 -0.0732190 0.4535359 4.0377836
 3.6816707 1.1356274 4.3764873
 4.5399160 1.0322516 4.4340944
 3.9435174 1.0428081 4.9614544
 3.7391865 1.0115123 4.7955709
 4.5025921 0.7460752 4.9869394
 4.1955643 0.7296235 5.0324960
 4.7680650 0.7727390 5.1572576
 3.8603418 0.9042299 5.8540506
 -2.2567644 1.1703913 8.3131495
 0.0390357 0.7529449 7.3157911
 -2.2863941 1.2906953 8.7524786
 -1.1238186 0.4542248 8.3899689
 5.4192686 0.7956425 6.3060722
 5.7639260 0.6584882 5.9958940
 -2.3577859 1.2974463 8.9743156
 5.9348540 0.6826747 6.1142697
 -2.3419101 1.3337538 9.2420492
 -2.3473828 1.3385268 9.2888231
 5.5065622 0.5815845 6.7789135
 4.2260714 0.7302632 7.3313608
 3.1697125 0.7463717 7.8332114
 6.3258204 0.4390056 6.5938563
 3.3020563 -0.0937834 8.3365335
 3.3160658 -0.0904068 8.3572855
 6.2758794 0.4861579 7.1851168
 7.5640831 0.1855622 7.2143416
 5.1786494 0.9411587 7.8465919
 -3.4296591 1.2043790 11.1161880
 5.3686428 0.6831953 9.6027880
 4.3796272 -0.5778129 11.8307867
 4.7298427 -1.0694518 9.9253626
 1.5087268 0.7384067 12.0908499
 5.1718712 -0.7398131 11.1458063
 0.8902198 0.6145756 13.7208538
 9.8498240 -0.9611766 9.7166910
 10.1033154 -0.9732150 9.9049654
 -2.6143074 1.0656097 15.1587286
 6.1516237 0.3164841 11.2081003
 2.5526888 0.5376071 12.8999186
 1.1663078 0.2731862 14.2970924
 0.9627094 -0.0092231 13.8878880
 3.6513016 -0.4192096 14.2551098
 6.8989239 -1.4625213 12.4271832
 3.7679367 -2.6308162 13.8106384
 -0.8565449 -0.6245642 15.6409407
 8.2473621 -0.0472176 13.0686340
 11.0721426 -1.7953027 14.2320652
 2.3160689 -0.2577304 16.8397598
 0.4731078 -0.2760369 2.1201744
 -0.5536281 0.5545446 2.5766602
 0.2650357 0.5275417 2.2913938
 -0.2337879 0.5514612 2.6155176
 0.2644388 0.4710700 2.5495958
 0.2608930 0.4682112 2.5489757
 -0.2694397 0.4032975 2.8372891
 -1.1554513 0.6644751 3.2354896
 -0.9506121 0.5455837 3.3101671
 -1.3292688 0.5138358 3.5156152
 -1.3317174 0.5285058 3.5906446
 -1.5038464 -0.3670777 4.1605277
 -1.3202301 0.8479721 4.0322013
 -1.5215380 0.6186950 4.2454419
 -1.8498071 0.8926405 4.4833679
 2.4912374 0.9231291 3.8785028
 2.6467161 -1.4446384 4.4689908
 3.6518931 1.1817445 3.9349654
 3.6120753 1.1705743 3.9025812
 3.6331866 1.1777427 3.9193821
 3.5003641 -0.6253773 4.0621982
 4.0310664 1.1011059 3.9241059
 1.4181620 -1.1227534 5.0749621
 3.8982184 1.1197200 4.1773801
 3.6068113 1.0578774 4.3445954
 0.4778972 0.6451302 5.5234156
 0.5873930 -0.1541077 5.7944827
 4.0026917 0.9457908 4.5946164
 4.6203413 1.0470364 4.4890237
 4.6544538 1.0363127 4.4220233
 -2.4232898 -0.4061334 7.6835957
 4.8472967 0.8941601 5.0518417
 5.0667405 0.8570749 4.7531071
 5.1199760 0.8652340 4.7891603
 5.1047568 0.8629569 4.7794361
 5.1908736 0.8729705 4.8379688
 5.6116667 0.7315716 4.9922147
 5.3196836 0.6975436 4.8063984
 3.6891384 1.1125760 5.6635637
 5.5010786 0.7258032 4.9280982
 3.8297696 1.1559967 5.8366776
 -2.0813832 1.1933297 8.2357702
 5.2511921 0.8365442 5.4789066
 4.1303954 0.9443585 6.1259527
 4.1260524 0.9363370 5.9290342
 5.5050688 0.7649514 5.4786267
 5.0636845 0.9503637 5.5321293
 -1.1174563 0.4809732 8.6478891
 -2.9420149 1.3684391 8.9909382
 -3.3236730 1.1847011 9.1324320
 3.3917668 1.0357260 6.7639017
 -2.2003126 1.2430160 8.9211693
 5.5025859 0.8766398 6.1131005
 -2.2054000 1.2538953 8.9508696
 -3.0435729 1.4405928 9.4680643
 -2.6481516 1.0393077 9.4588861
 -3.0482996 1.4651947 9.4692879
 -3.0853744 1.4984155 9.6419115
 -3.3980994 1.2648504 9.9021149
 -3.0895512 1.4843822 9.6767540
 6.1161928 -1.5893209 6.6020546
 6.9112129 0.4052900 6.5977664
 7.5274887 0.5164733 6.3349018
 -0.6679076 0.9663180 9.3529892
 7.0840583 0.5445103 6.5589824
 7.6666646 0.5256316 6.4231348
 -3.0201097 1.4388946 10.7969179
 -3.6976738 1.8946615 11.4202194
 6.5138502 0.5008974 7.3555231
 4.2036233 -1.2737482 8.9557114
 6.7033992 0.5120159 7.5185881
 -3.3435946 1.2212701 11.0499229
 -3.2060006 1.3120954 11.0321016
 -1.5539765 1.0038962 11.1205578
 5.1478057 0.8497388 8.9676723
 6.8594313 -5.4580164 8.9016714
 8.7745800 0.1245094 9.2431431
 6.2069254 2.8360283 10.4628372
 10.0111103 0.0082564 8.4652643
 4.5752702 -4.0644717 12.0266094
 -4.1426382 1.2218417 14.9060459
 10.9235334 -0.5078811 10.0409088
 5.8375335 -4.8533244 12.2268610
 5.6513481 -4.3696103 12.1360645
 5.9616156 -4.7597027 12.4872799
 10.1838942 0.2873651 9.7492628
 5.6243739 -6.2764845 12.9403925
 6.2907376 -5.1685238 13.0313520
 5.7832241 -7.2557654 12.9624872
 6.3873320 -4.9679360 13.1742067
 6.7027569 -5.2039900 13.7287416
 1.8402859 -0.1778699 15.2229280
 7.7111549 -6.5386877 13.1566172
 -3.6139033 0.9552090 17.6225834
 -0.9184094 0.2738973 1.2338407
 -0.8926542 0.0414755 1.1544590
 -0.6117716 -0.0853356 1.2083439
 -1.0155317 0.0142772 1.3833303
 -1.0784354 0.2827006 1.4154150
 -0.6271807 0.1656902 1.2367507
 -0.8853866 0.1811704 1.3557626
 -0.9351127 0.0274044 1.3743991
 -0.6077408 -0.0898962 1.3030170
 -0.6083098 -0.0893691 1.3041109
 -0.9227923 -0.0336500 1.4656453
 -0.4486412 0.0019022 1.3452616
 -1.1207585 0.0120618 1.6253098
 -0.4388879 -0.0643513 1.3962988
 -0.9424399 0.2720568 1.6408863
 -0.5748710 0.2926318 1.5343676
 -0.7761326 0.0240075 1.6171464
 -0.9458519 0.2831073 1.6923758
 -0.6385528 0.3017837 1.5719513
 -0.9457998 0.2826341 1.6931988
 -0.6383592 0.3022969 1.5726817
 -0.5714759 0.3025343 1.5472600
 -0.5696787 0.3028651 1.5486221
 -1.0345309 0.2879890 1.7375630
 -0.5332292 0.2717798 1.5540776
 -0.2292322 -0.3784314 1.4348779
 -0.1989457 -0.0827254 1.4356593
 -0.4304462 -0.4421423 1.5630473
 -0.4481218 -0.5454098 1.6019728
 -0.5122517 -0.3660854 1.6308936
 -0.4468353 -0.5458182 1.6040400
 -0.8319796 0.1498849 1.7705299
 -0.4510802 0.3362142 1.6494765
 -0.4251688 0.3043394 1.6447048
 -0.7147742 0.0571358 1.7597029
 -0.1448399 -0.1705552 1.5388879
 -0.4099220 0.3132248 1.6684861
 -0.8746960 -0.0065284 1.8773376
 -0.0833756 -0.1924918 1.6081618
 -0.3207549 -0.1173216 1.7190311
 -0.6246759 0.0486254 1.8800917
 -0.3200100 -0.4123849 1.7846484
 -0.4730036 0.3272381 1.8563192
 -0.4726273 0.3291673 1.8615832
 -0.2053622 -0.6548176 1.7519847
 -1.2572526 -0.0783985 2.1872644
 -0.2863868 0.2507801 1.8166277
 -0.6448519 0.3951487 1.9674414
 -0.4609199 0.3398867 1.9012593
 -0.1011727 -0.7165250 1.7719471
 -0.0289786 0.3233421 1.7733958
 -0.3469821 -0.5601623 1.9071075
 0.1368408 -0.3915162 1.7351160
 0.1654453 0.7419493 1.7408702
 -1.1243653 0.4222438 2.2732830
 -0.1591957 -0.3135540 1.8856732
 -0.6293616 0.4265947 2.1029921
 -0.0160615 -0.1447564 1.8919815
 0.2690772 -0.3680501 1.8075629
 -1.0972097 0.3975635 2.3574371
 -0.6504887 0.0439663 2.1866403
 -0.0573794 -0.8196886 1.9490709
 -0.6475953 0.0459479 2.1932991
 -0.7531283 0.4468247 2.2559032
 -0.3032679 0.3982402 2.0960960
 -0.3060015 0.3973205 2.0924566
 -0.0218112 -0.8476055 1.9743525
 -0.3491493 0.1028567 2.1354556
 -0.1636005 -0.7403004 2.0543315
 -0.1988360 -0.6649200 2.0968022
 -0.5396628 -0.9527108 2.2761338
 0.3647996 0.8710834 1.9357460
 -0.0991537 -0.4707522 2.1283300
 -0.1559722 0.7920863 2.1972289
 -0.1593001 0.7910868 2.1952846
 0.0499012 -0.9466349 2.1525168
 0.0563374 -0.9487063 2.1636317
 0.2258871 -0.6161121 2.1377347
 0.1109152 1.0163465 2.0248144
 0.4597757 1.4589752 1.8217677
 0.4327112 1.6493995 1.7381550
 0.2123243 1.6480789 1.8474284
 0.0428793 1.6775676 1.8634156
 -0.1642470 1.7021563 1.8426640
 -0.6640831 0.6040481 2.4678078
 0.0060093 1.6556234 1.8893616
 -0.4191807 0.5462139 2.7038064
 -0.6885963 0.7698597 2.5194714
 0.1075237 0.5057261 2.8458767
 -0.4191865 1.2216347 2.3793049
 -0.2159554 1.6341203 2.2048900
 0.0319923 0.4841619 2.9092925
 -0.6506374 1.0454420 2.5214586
 -0.2174154 1.6388786 2.2129958
 -0.2201263 1.6396041 2.2161856
 -0.9165151 0.5658228 2.8297169
 -0.3079198 1.5791357 2.3089621
 -0.6468108 1.6806322 2.2396657
 -0.6472586 1.6814854 2.2432325
 -0.9523695 0.8898451 2.7186360
 -0.6430566 1.2976182 2.5305624
 -0.7624291 1.6787068 2.2894461
 -0.3591663 1.6098905 2.3530529
 -0.4355920 0.5334527 3.0132444
 -0.6298057 1.6683228 2.3737202
 -0.1069780 0.5068641 3.1443200
 -1.2573931 0.7349191 2.8942473
 -0.4931556 1.6298517 2.4339869
 -0.8627107 1.6971228 2.4160569
 -0.9580135 1.6917726 2.4642057
 -1.5380609 0.6163283 3.2015615
 -1.1304597 1.7167058 2.6379149
 -1.1308706 1.7166741 2.6351593
 -1.2063617 0.5831601 3.3318937
 -1.3691590 1.7599407 2.6295722
 -1.5211953 1.7647241 2.6831293
 -0.6093010 0.5275053 3.5026555
 -1.4787782 1.2150362 3.0836165
 -1.4912138 1.7644436 2.7704041
 -1.5013295 1.7732159 2.7843263
 -1.1539903 1.6927215 2.8655550
 -1.7828517 1.7816746 2.7843010
 -1.3729042 1.7286018 2.9048605
 -1.2491825 1.6649114 2.9509852
 -0.7402130 0.5226282 3.7271392
 -0.7533574 0.5193834 3.7129877
 -1.6375248 1.7680955 2.9609778
 -1.6484638 1.7807342 2.9798782
 -1.6439109 1.7752872 2.9738107
 -1.9342966 1.7778013 3.0027483
 -1.6511979 1.7336468 3.2589960
 -2.0791414 1.7500808 3.1274860
 -2.2916539 1.7931879 3.2684326
 -2.1648104 1.7118202 3.5343833
 3.9472575 0.8908067 7.3714123
 0.6896169 0.5305558 11.8540325
 -4.3626161 1.3613838 12.3977423
 1.1391470 0.2300632 14.1037245
 1.1308438 0.2281268 14.0290995
 -2.6152437 1.0646566 15.1563492
 -0.1310635 0.9366049 12.2196684
 -4.2178621 1.2762998 14.0731182
 8.4466152 0.2220156 8.4158802
 -1.6623176 1.1379000 13.0299120
 11.3093538 -2.1887276 7.0713086
 8.5975084 0.2656206 8.5283594
 -4.2832007 1.2936059 14.3421116
 -0.5374538 0.9736227 12.6699514
 -1.3516949 1.0355556 13.0866852
 11.5695410 -0.4430633 7.2822800
 10.1175051 -0.0953445 8.0090446
 -1.3508425 1.0353414 13.1654406
 5.7445526 -5.5230880 9.4586067
 11.4028683 -1.7600183 7.3216023
 -1.3501927 1.0367433 13.1954708
 11.5667915 -2.2763898 7.2063446
 11.5992231 -2.2945201 7.2363453
 11.5004311 -1.7750056 7.3756199
 11.6743269 -2.2928219 7.2638712
 -1.3487265 1.0410445 13.3051567
 11.1816311 -4.5409508 7.4063821
 1.5318116 0.7357090 12.1463480
 11.8098001 -2.4654210 7.3699627
 0.3611089 -0.8796543 12.5591612
 1.5529445 0.7425140 12.2489843
 9.0255308 0.0583015 8.9426346
 1.3531485 0.6986412 12.6238403
 -3.2190955 1.1176797 14.6962442
 -3.2157037 1.1352603 14.6992893
 9.6439772 -0.1649711 8.9884052
 -4.3510127 1.2284281 15.3063946
 1.3769621 0.7029309 12.7498569
 -3.2259147 1.1402932 14.8275900
 -3.2560103 1.1551754 14.9289904
 -2.1951828 1.1068107 14.4763908
 -3.2872908 1.1617216 15.1444597
 11.3322392 -0.5648679 8.8785410
 11.4685001 -0.5704872 8.9625359
 -3.9253390 1.1802675 15.9309006
 -1.9191411 1.0225106 15.0382195
 2.5875380 0.5466364 13.0182610
 11.5377378 -0.5735978 9.0106192
 1.2687727 -0.8908812 13.6228008
 -4.1754217 1.1804875 16.2167835
 11.7187853 -0.5786101 9.1342821
 -4.1921387 1.1709405 16.3277626
 -4.1955624 1.1705767 16.3323536
 -2.6839085 1.1076488 15.7404203
 8.5611429 0.1349005 10.9221106
 6.0398507 -3.8203588 11.6982689
 -3.9745479 1.0970519 16.6358833
 -3.9911194 1.1158069 16.6533470
 -3.4572244 1.0527124 16.4388123
 -2.5392609 0.9809113 16.0327511
 -2.6022937 1.0344625 16.2357864
 -2.6110601 1.0309778 16.2707348
 10.8004875 -0.6645294 10.2213364
 -4.9341164 1.1916019 17.3651066
 9.6078415 0.0309123 10.9083395
 -2.6295664 1.0443901 16.5053883
 -2.5923417 1.0196120 16.5093288
 -3.1416280 0.9754686 17.1509075
 5.3946757 -7.1346254 12.7103300
 -1.8457595 0.9424170 16.6981411
 6.6465216 -8.0999689 12.1690454
 0.6967876 0.6368744 15.6145258
 11.0486908 -0.3588293 10.9784365
 5.4679489 -7.2930102 12.8300972
 9.4290838 -0.0189586 11.7777891
 -3.6757934 0.9899346 17.7038021
 5.5211740 -7.3750405 12.9056110
 11.1621304 -0.3587931 11.0853729
 11.5280313 -0.4196964 10.9955692
 -3.2231810 0.9734508 17.6651878
 12.0101280 -0.5770275 10.8345394
 8.4499817 -0.0262936 12.5336790
 -3.2276306 0.9865282 17.7987251
 5.6516490 -7.4765615 13.1293058
 9.6770563 -0.0221294 12.0527420
 5.0983157 -9.1474085 13.4247198
 13.6110029 -4.4493089 10.1442213
 0.0060449 0.5216238 2.3486321
 -0.6785401 0.5786115 2.6650550
 -0.4610584 0.5605623 2.5675697
 0.2436395 0.5215710 2.2734931
 0.2390832 0.5176619 2.2700434
 -0.7111796 0.5653172 2.7160835
 0.2447026 0.5166997 2.2767775
 -0.5824363 0.5610456 2.6479411
 -0.9219949 0.5800291 2.8603659
 -0.5668890 0.5555863 2.7140613
 -0.5654491 0.5578070 2.7190337
 -0.9358078 0.5705858 2.8902159
 -0.9354756 0.5674134 2.8947461
 -1.5035090 0.6070021 3.1518877
 -1.5101428 0.6090531 3.1679001
 -0.4000206 0.6164900 2.6824024
 -0.2397212 0.5440978 2.6037917
 -0.2396514 0.5431334 2.6105983
 -0.2433546 0.5425280 2.6113465
 -1.0892686 0.5734444 2.9889021
 -0.6204954 0.5657173 2.7831252
 -0.6313162 0.5626326 2.7924476
 -0.6631090 0.5635008 2.8087807
 -0.6270728 0.5654842 2.8019927
 0.2286477 0.4916732 2.4471176
 0.4310369 0.4580505 2.3737121
 -1.0986636 0.5742801 3.0603192
 -0.1339486 0.5491514 2.6381581
 -0.1560844 -0.0005927 2.6677334
 -0.2284544 0.5235481 2.7498608
 0.2305766 0.4680741 2.5523310
 -0.1496736 -0.0020474 2.6770213
 0.2619141 0.4686858 2.5350940
 -1.3550720 0.6391134 3.2730699
 -0.1629962 0.5266241 2.7404687
 -0.1568625 0.5298543 2.7385671
 -0.1609619 0.5300498 2.7412868
 -1.3560601 0.6437250 3.2789276
 0.2763079 0.4715373 2.5533512
 -0.8748631 0.5668823 3.1188850
 -0.4121016 0.5444710 2.9285536
 -1.2356329 0.5928310 3.2930510
 -1.2353857 0.5947559 3.2985682
 -1.3901796 0.6037604 3.3731530
 -1.2347724 0.5948505 3.3003459
 -1.3878700 0.5949234 3.3767364
 -0.8451445 0.5603658 3.1499338
 -1.3833352 0.5892739 3.3930387
 -1.1922500 0.5692466 3.3254611
 -0.4233656 0.5375436 3.0251110
 -1.0735369 0.5665979 3.3288183
 0.1241274 0.5057815 2.7853069
 -0.9339083 0.5429755 3.2729063
 0.1130859 0.5048616 2.8053596
 0.0816195 0.4858582 2.8961670
 -0.9532771 0.5521855 3.3571236
 -0.4392146 0.5122971 3.1888254
 -0.4498374 0.5231133 3.2109485
 -0.4485447 0.5233994 3.2166357
 -0.4500032 0.5196424 3.2030196
 -1.2427635 -0.3590250 3.6429877
 -0.0574895 0.2286710 3.2809365
 -0.0165368 0.4842393 3.2871733
 0.6356384 -0.4572423 2.9236832
 -0.0296999 0.4919279 3.3284645
 -0.0051593 0.4964519 3.2926569
 -0.0014549 0.4925369 3.3083358
 0.0019773 0.4937808 3.3181982
 -0.0420157 0.4925694 3.3114123
 -0.2790065 0.5103813 3.4920630
 -0.2833020 0.5106356 3.4875398
 -0.2837518 0.5025659 3.4579110
 -0.1341409 0.5006533 3.4856987
 -0.1859664 0.4879360 3.5214336
 -0.8365506 0.5304155 3.8221893
 -0.8335717 0.5287697 3.8225269
 0.6307443 -0.7483147 3.1374688
 0.0278709 0.4616880 3.8370564
 -0.2869548 0.4880110 3.9914281
 1.8517311 -0.4610798 3.0003726
 -0.4108694 0.5006393 4.0891333
 -0.4009402 0.5110683 4.1189623
 -0.3388179 0.4869744 4.0907750
 0.0549987 0.4051775 4.1275744
 -0.1077980 0.4485595 4.2247591
 -0.1030468 0.4603951 4.2294765
 -0.0995603 0.4580861 4.2365308
 -0.1018020 0.4629415 4.2406993
 3.7532129 1.1432440 3.6428096
 3.7548242 1.1459820 3.6447942
 3.7787926 1.1490668 3.6588142
 3.8105369 1.1564283 3.6854851
 3.4990237 1.2088077 3.8328948
 3.8562288 1.1538656 3.9665418
 4.1308722 1.1208569 3.9863887
 4.1355886 1.1199178 3.9905448
 4.1890855 1.1271278 4.0154967
 4.2037845 1.1347148 4.0272021
 4.2515826 1.1444776 4.0567513
 4.1852002 1.0654610 4.0994825
 1.5878479 -1.4131579 5.2253428
 4.7462192 1.0236306 4.1049395
 4.7700853 1.0289087 4.1169086
 4.8277059 1.0362543 4.1445055
 4.8626566 1.0476469 4.1730065
 3.6162784 1.1992273 4.7443228
 4.5935435 1.0160469 4.3803029
 3.4890487 1.1115204 4.9255500
 3.5271673 1.1210960 4.9633722
 3.6569159 1.0376407 4.9030752
 4.8631349 0.9558425 4.3870544
 4.7204256 1.0437477 4.4702864
 4.6989055 1.0442166 4.4540977
 4.8934011 0.9534801 4.4232640
 3.4378366 1.0061693 5.0915627
 4.5564575 1.0615593 4.5917544
 4.7985721 1.0612270 4.5100970
 4.5785198 1.0681832 4.6016707
 4.0440216 1.0474746 4.8865752
 4.6749153 1.0827775 4.6712656
 5.0782456 0.9933363 4.5451517
 5.1298194 0.8656227 4.5330791
 4.6874976 0.9822127 4.8023796
 4.4289069 1.0176654 4.8920918
 4.6148386 -3.0293028 4.4738240
 5.2917566 0.8216079 4.5490851
 5.4118028 0.2264286 4.5278649
 5.3893280 0.7316691 4.5844851
 4.0670848 0.9931874 5.3196821
 3.5783718 1.1097692 5.5770450
 1.4916279 -2.8357773 6.1314049
 4.1090837 1.0006769 5.3310623
 5.4694891 0.9113763 4.7615633
 -2.8832171 1.4168930 8.5120258
 5.8490753 0.7189583 4.6145902
 5.8458142 0.7212597 4.6186223
 5.8449597 0.7256063 4.6118579
 5.8663411 0.7245464 4.6309209
 3.9271312 0.9688756 5.5123653
 -2.4354610 1.3797650 8.3647575
 -2.4342046 1.3786926 8.3645821
 -2.4432516 1.3800832 8.3818655
 3.3808956 1.0437993 5.8313527
 -2.4533551 1.3915570 8.4351854
 5.1184611 0.8531697 5.1032743
 3.6410537 1.0319388 5.8290958
 5.1441298 0.8577278 5.1220493
 -2.9581611 1.4093487 9.0557480
 -2.6172788 1.3490736 8.8982506
 -2.9609535 1.3978133 9.0865450
 4.8957629 0.8197496 5.6109262
 -2.9764016 1.4136652 9.1341820
 -2.6333852 1.3634230 8.9868879
 -2.6354377 1.3818754 8.9999380
 5.4579949 0.7607462 5.4423194
 5.4268084 0.7570617 5.4192920
 -2.1358318 1.3074520 8.8286953
 3.3012433 1.0418584 6.4229646
 -2.1649621 1.3042619 8.8855038
 5.0475802 0.8216525 5.7251344
 -2.2155550 1.2461312 8.9988890
 4.2419791 0.9661646 6.2313175
 6.9386568 0.5684095 5.0679569
 6.3171225 -0.0178473 5.3118424
 -2.2232149 1.2902672 9.1885443
 -2.3433330 1.3401715 9.2866726
 -1.7747313 1.2516240 9.1613274
 -1.7782346 1.2517078 9.1750240
 -1.7842989 1.2615751 9.2040367
 -2.2782435 1.3374504 9.4481392
 3.8215654 0.9933735 6.7480555
 3.8784871 1.0060809 6.8231544
 6.5971951 0.6443896 5.6582623
 4.3308430 0.9635298 6.7424979
 6.4746590 0.6936560 5.7640238
 4.6204958 0.9014269 6.6481576
 -2.1172321 1.2301375 9.6342859
 4.7886653 0.8654593 6.5643969
 6.4907990 0.6961136 5.7778378
 5.4012990 0.8041496 6.3017111
 4.7804117 0.8670994 6.5568137
 6.5432434 0.6988376 5.8148913
 -2.8773179 1.3465749 10.0377998
 -2.8789968 1.3514317 10.0891113
 -2.1325190 1.2173985 9.7517748
 -2.8958752 1.3506652 10.0994072
 -2.8990304 1.3614357 10.1176224
 -1.5458025 1.2102922 9.5386982
 6.0140743 0.6861469 6.1690006
 -2.9025450 1.3625818 10.1844740
 3.7502871 0.9734053 7.2324562
 7.6286001 0.4452811 5.5172219
 7.0035982 0.4861394 5.7988768
 7.6312046 0.4434831 5.5218129
 -2.9309704 1.3793924 10.2791834
 7.0393901 0.4918526 5.8311419
 -2.4772046 1.2892356 10.0883713
 4.4607687 0.9096711 7.0336404
 7.7160592 0.4520501 5.5801301
 6.8639970 -0.9539086 5.8598561
 -2.4913158 1.2977506 10.1822500
 -0.6624478 0.9802256 9.4317732
 7.1241922 0.4922754 6.0788908
 -0.7197926 -0.3676846 9.8079453
 -2.2810879 1.2486149 10.7137413
 5.9145036 0.6126375 7.1414590
 7.1401749 0.4118466 6.7556038
 7.1491838 0.4104573 6.7609701
 6.1090927 0.6387905 7.3118548
 -0.6321601 -0.7610165 10.1896734
 6.1784201 0.6346428 7.3670063
 7.9325781 0.3469505 6.6619368
 -0.1405141 1.0579399 10.3116312
 -2.9692135 1.3072319 11.5879917
 -2.9903347 1.3017921 11.6803732
 8.0588799 0.3488382 6.7471423
 7.1185308 0.4917789 7.1889815
 4.6505952 0.7798781 8.3200130
 -1.4037445 1.1562017 11.3354416
 -2.9138706 1.3001938 12.0460997
 -2.6804991 1.2706686 11.9794607
 6.9150548 0.5256323 7.6954880
 -2.6854184 1.2757711 11.9959641
 -1.4077631 1.1524376 11.4556799
 -3.2644155 1.3174796 12.3213463
 0.2392946 0.9174806 10.7760334
 6.1348143 0.6472516 8.1735096
 -3.3053579 1.3375540 12.5193806
 -1.2774304 1.0922443 11.6571703
 7.1735139 0.5413018 7.9109588
 4.8216066 0.7948665 9.0526676
 -3.5393538 1.3375651 12.8727894
 -2.1681948 1.1705341 12.3482141
 -2.6074522 1.1653315 12.7251778
 -2.1760688 1.1899551 12.5477715
 -2.5940886 1.1717695 12.7347059
 -2.5991330 1.1793548 12.7931070
 -1.2770540 1.0661968 12.2466354
 -4.2438335 1.2872052 13.8204355
 -2.6708155 1.1985906 13.1802988
 4.6295972 -1.2739245 9.8144045
 -4.3029265 1.3048747 14.0449352
 0.6264602 -0.2826538 2.0608468
 0.1365577 -1.0303546 2.2359216
 0.1410030 -1.0345119 2.2390401
 -0.4872815 0.0254972 2.5064204
 0.1417994 -1.0348468 2.2396424
 -1.2281904 -0.0982624 2.7950478
 -0.0608748 0.4832522 2.3822069
 -0.5618642 0.5496664 2.5811248
 -1.0765656 0.1648371 2.7967722
 -0.7042223 0.5451438 2.6704552
 0.6903200 0.5335431 2.1231980
 -0.7966496 0.5265414 2.7331221
 -0.7026147 0.5649481 2.7130251
 -0.4558732 -1.2188854 2.6694357
 -0.4544503 -1.2183248 2.6709859
 -0.4550522 -1.2214814 2.6728058
 -1.2564048 0.7799945 3.0383966
 -1.0789992 0.5494503 2.9787207
 0.5921803 0.5770133 2.3630013
 0.5524923 -1.1331284 2.3647966
 -1.1994473 0.5395975 3.0752921
 -0.4248151 -0.0557726 2.7720532
 0.5470361 -1.1273880 2.3868885
 -1.5897144 -0.0730980 3.2424033
 0.5442405 -1.1319299 2.3917398
 0.8098215 0.6475739 2.3395162
 0.5989304 -1.1749631 2.4223342
 -1.0840453 0.5932000 3.1263049
 -0.3714360 0.5067517 2.8687272
 -1.0855591 0.5934604 3.1611412
 -0.0678848 -0.3071301 2.7856007
 0.5203330 -0.8483511 2.5675185
 -0.1269912 0.5958909 2.7818549
 0.7379544 0.6191757 2.5926042
 0.2047974 -0.3663424 3.0400753
 1.1060283 -0.8576754 2.7161994
 1.1174322 -0.8603277 2.7265885
 0.1590298 -0.0043906 3.2030098
 0.3790903 -0.2595376 3.1832063
 0.1770061 0.5048330 3.4339964
 -1.5212983 0.6212524 4.2414975
 0.9397658 -0.9000968 3.4422746
 0.7803884 -0.1453643 3.5567460
 -0.2815776 0.4954524 4.0204482
 -0.2753114 0.4962507 4.0562944
 -1.8243355 0.2438748 4.7451472
 -1.8229705 -0.1709027 4.7388215
 -1.8264256 0.2537607 4.7554784
 2.0124040 -1.9661926 3.3498688
 0.1942429 0.4975643 4.3110080
 2.9917369 -0.1442623 3.3754001
 2.5005372 0.9322901 3.8950908
 1.1248431 -1.1642100 4.5304852
 0.8185471 -1.5955877 5.0559783
 2.2520351 -2.1265414 4.6040888
 2.9638841 0.7790440 4.4188504
 -1.5481348 -0.1813801 6.3136349
 2.5611429 -2.5856395 4.8820348
 -0.0571833 0.1117942 6.1317005
 3.2251358 -3.1359584 4.8613019
 3.0057936 -2.8877048 5.0767994
 -2.1975901 -0.3198939 7.1766238
 -1.3319160 -0.9009280 7.0269265
 2.6395342 -2.5003097 5.5613408
 -0.8243582 0.2005243 6.9909544
 4.5985107 -2.6048629 4.9836311
 5.4153023 0.9009165 4.7083187
 5.7089829 -0.4838722 4.7747836
 1.3520943 -2.2193077 6.4802237
 0.2277463 -0.0899813 7.1144032
 5.7099547 0.7381818 5.0408092
 0.7548412 0.9989848 6.9920845
 5.5390420 0.9894789 5.5315981
 6.1639366 -2.9179688 4.9318428
 0.8079469 1.0346437 7.1909342
 -0.2435534 1.4769280 7.7632308
 -1.8478985 0.7787665 8.4534988
 5.9236541 0.6734388 6.1097226
 3.5881655 -2.6834598 6.5866218
 0.8822005 -0.3587784 7.6776080
 5.6509061 0.6576266 5.8924932
 -2.1971231 1.2688043 9.0360041
 4.1094089 1.1982123 6.6248889
 5.3460665 0.3954630 6.2728438
 -1.7922199 1.2182380 8.9983740
 -1.9055326 0.8383037 9.1803217
 -2.0450346 0.6356313 9.2468319
 -0.2422188 0.0395939 8.5809460
 3.9088242 1.2241333 7.1468983
 7.5287185 -1.2706449 6.5417361
 -2.2341657 0.6120305 9.5692024
 -1.1069098 0.5029667 9.2034740
 -1.1138624 0.5069273 9.2287874
 -2.6567478 -0.1597025 9.9072247
 -2.3328114 1.4087733 9.8970089
 -1.9486704 -1.3005011 9.7374344
 7.2567711 -1.0054072 6.1381803
 3.2556019 -4.2655149 7.6893315
 1.9011186 -1.5449446 8.4041605
 7.4908257 0.3484600 6.2653046
 4.9777365 0.6958629 7.3138580
 -0.3939131 -0.6923913 9.5126143
 5.6427579 -4.5467615 7.1897402
 -1.2288933 0.6786520 9.9898539
 -1.2127833 0.4687289 10.0340843
 3.5066442 -4.5414052 8.1342840
 0.5746834 -0.1802173 9.7835302
 7.2516122 -1.1239859 6.9628453
 4.5589175 1.3026261 8.1762953
 0.5904672 -0.1660137 9.8203077
 -3.7762384 0.1659636 11.4712486
 -2.3671968 1.6295378 10.9545412
 6.0871654 -1.9767336 7.5831952
 3.7950850 -4.1166267 8.5346518
 -3.4576092 1.7857454 11.4998150
 -2.0428975 0.7393955 11.0047321
 6.2011876 -2.7351151 7.7369852
 4.6301374 -5.0694528 8.3980284
 5.6513467 -4.6882310 8.1598206
 6.4058123 -2.7844067 7.9015751
 -1.8244292 -0.3877793 11.3427277
 4.1935668 -1.2466065 9.0498095
 7.6312866 0.1851509 7.8125625
 5.0739512 1.4037039 8.8767061
 6.6955023 -2.9071879 8.2006826
 8.6707392 -1.6043999 7.5707078
 5.2583752 -1.2473669 9.3603039
 7.9816103 -0.4072153 8.1969051
 4.8540149 1.6680703 9.2918196
 -2.1535795 1.1088656 12.3881731
 -2.1339567 1.1393733 12.3477020
 -3.9355328 1.4599785 13.3531504
 0.2835179 -0.8304631 11.9053326
 6.5271268 -4.0430894 9.5233307
 -2.5150735 1.4504373 12.6089163
 7.4884496 -1.2259198 9.3746834
 5.0765543 -1.3860910 10.5039778
 4.5932012 1.6125419 10.8215723
 6.7232647 1.3423235 10.3137646
 -0.3276279 0.9410274 13.1042757
 1.0179479 -0.4395211 12.6866989
 -2.6979532 -1.0245266 14.1923800
 -3.0996666 1.0337646 15.0091705
 4.8499475 -4.2291303 11.3018026
 1.0564626 0.8071699 13.1204844
 13.0134945 -6.0536089 8.3408546
 4.9053278 -6.2892680 11.9759026
 7.8010426 -6.3821712 10.5248308
 0.5047137 0.2526014 13.5638647
 3.7917907 -5.5709167 12.1734447
 8.1076469 0.3263153 10.5884895
 6.5316825 -6.2862363 10.8208189
 10.9607801 -3.1201615 10.2807274
 4.3270144 -1.1131897 12.5815306
 3.5002961 6.0278292 13.2321577
 5.0963297 -7.4711151 12.5576410
 9.7106104 -0.4898455 10.7724705
 6.4052091 0.7314573 12.6600122
 12.1471348 -2.3303816 10.5328779
 -4.5357237 -0.9172709 17.1242352
 6.5072703 0.7837171 12.8701582
 12.7250185 -0.8873302 10.5107212
 6.1508427 -6.7761884 13.3581657
 7.5430355 -6.8813820 12.8755932
 -4.8088684 -0.6054677 17.9377079
 6.0838842 -8.0789061 13.7174778
 -4.7330060 -1.0591452 18.1047649
 -0.9309620 0.0500523 1.1972854
 -0.8625135 0.1589829 1.2232304
 -1.0363982 -0.0047738 1.4055015
 -0.9196433 0.0167312 1.4053481
 -0.6404701 0.2325144 1.3215814
 -0.3581531 -0.0707855 1.3275268
 -0.5308192 0.0427156 1.6425941
 -0.3626428 0.3256497 1.7020303
 -0.6506959 -0.6296179 1.7638330
 -1.1045644 0.0301879 2.0973887
 -0.6879506 0.2710890 1.9989485
 -0.0732457 0.3126303 1.7447789
 -0.2093329 -0.6577848 1.7394818
 0.1912740 0.5192915 1.9819992
 -0.5523306 -0.9239833 2.2177231
 -0.5522647 -0.9239179 2.2187874
 -0.5521771 -0.9273703 2.2209008
 -0.5514171 -0.9294968 2.2232962
 0.0102029 0.5218438 2.1151474
 0.1996600 0.5301077 2.1114907
 -0.3793861 0.5554897 2.4319334
 -0.1500232 0.5343942 2.3451214
 -0.2968632 0.5584984 2.4150484
 -0.1383166 0.5330823 2.3451078
 0.0709669 0.5283618 2.2488592
 -0.5637163 0.5432281 2.5442708
 -0.2901759 0.5616525 2.4246888
 -0.3557205 0.5602486 2.4755666
 -0.3566267 0.5597073 2.4758286
 -0.5455307 0.5501817 2.5615461
 -0.3849921 0.5553518 2.5180924
 0.4632840 0.5215666 2.1404779
 -0.1453393 0.5377814 2.4108679
 0.3471617 0.5222277 2.1909981
 -0.7038178 0.5649846 2.6632164
 -40.6288452 -13.7675571 75.6107788
 -8.4705334 -15.3210764 125.1774979
 -11.7525625 -19.4955540 141.7616425
 -10.1364841 -9.5470581 123.2977295
 -37.0882263 -19.4663124 68.8173141
 -34.2887688 -18.3819370 70.0728073
 -33.4343224 -2.5102828 86.2663269
 0.1245446 0.8530142 2.0113111
 -32.4668770 -15.3165207 59.2295189
 6.7221518 -10.1407385 157.9749756
 -11.7672396 -12.7644272 170.0933990
 -21.6739521 -5.7459416 101.8112030
 -23.0747032 -4.3663316 92.5354767
 -3.2128468 1.7346122 4.6290016
 -25.0341778 -11.9992046 96.3622818
 -3.3552842 1.7000031 6.1784368
 -13.0988312 -11.7915792 102.8839951
 -26.3097076 -8.3237982 67.9375916
 -34.6704903 -14.6557589 105.8650513
 -24.0309868 -10.1380329 79.6278610
 -4.1425786 1.6462561 7.2440486
 -4.4930234 1.6477264 8.0041437
 1.7910037 1.4274535 2.5834763
 0.1086888 0.4824351 3.3084054
 -26.9519405 -10.7486372 65.8659592
 -30.1345177 -17.8854008 111.6404648
 -8.7043762 -15.8411236 129.2424316
 -4.6906643 -15.4114037 145.7503967
 2.9435670 1.1629537 6.9806285
 -2.2668762 1.7234308 4.2203174
 -4.4538984 1.6323670 7.9264803
 0.1589723 0.7887522 1.9876120
 2.5335038 0.0401471 16.5057831
 68.6716690 -41.8471680 544.8039551
 -27.9071484 -14.5463943 79.8820114
 -32.2791100 -6.6893682 112.2430420
 -25.7604103 -9.6416254 66.4491425
 -27.4710236 -13.9731789 83.9910355
 -31.3088207 -11.8241329 69.2989731
 -29.5946808 -3.8340626 84.1520691
 -38.2339287 -10.9417801 65.8903961
 -25.7346802 -8.5637903 60.2270393
 -2.7255073 1.7655319 3.8859072
 -3.0657516 1.7551323 4.3780928
 -2.8300211 1.6624143 5.2989445
 -1.1841714 0.5787115 3.2361805
 -0.6341481 0.6073602 16.7528896
 -31.7768517 -15.8225660 65.9396133
 0.1584294 0.5921065 1.9289597
 -32.1504173 -15.1360559 58.6299362
 -0.5472900 0.5723882 2.6733243
 -23.1607285 -20.7607880 180.9937134
 -46.2120476 -12.4425497 113.1910172
 1.9149033 0.1090360 15.8643293
 4.3653231 0.8847205 8.1595421
 -25.4119835 -15.6566315 79.3842239
 -47.6088104 -16.1844959 88.3331909
 -38.0727921 -10.9388313 65.6151581
 -32.6229744 -14.3096752 86.0065994
 -3.2195950 1.7141958 4.9118905
 -27.1983910 -9.0333166 63.5050278
 -34.0497017 -7.0996242 118.2460251
 -24.6642647 -10.3662338 81.3896637
 -8.8135681 -16.7724571 109.7460861
 -38.0445633 -20.0358620 70.6817093
 0.0247109 0.5260553 2.1534238
 0.1567825 0.5899988 1.9264028
 -28.1091042 -8.6401949 55.1068535
 -35.0812111 -12.1612978 62.7514000
 -8.9332733 -4.9081268 68.1328049
 -31.3842487 -17.0805244 109.7961807
 -30.5536766 -2.5985265 62.2203903
 -33.8599091 -14.8645954 89.4849167
 -27.8121929 -14.6670494 78.7744522
 -28.8662720 -3.8449769 81.5410690
 -66.4316101 -4.2713356 118.2402496
 -37.3123283 -19.5660191 69.3199234
 -20.1103535 -10.5621691 102.6726837
 -26.1441860 -13.8380766 73.9657440
 -25.3294373 -11.8271236 63.5276451
 -30.6712017 -13.0664120 100.7359695
 -8.2832117 -15.5957909 101.8871002
 -19.9863777 -18.8104801 95.5615997
 -33.2723579 -11.3876629 59.4844322
 2.1918149 1.3233407 3.4657073
 3.6828113 -0.2076693 18.8172760
 3.6772013 -0.7993754 18.8247814
 -25.2001858 -10.8691711 87.3840027
 -22.7780209 -6.6457844 108.1640091
 -15.8711491 -8.4295845 81.5356979
 -8.6805515 -15.8398895 105.2405396
 27.3146152 -12.7709913 167.7428436
 -29.3934059 -2.5652575 69.7431641
 -3.8501441 1.7667947 5.7287817
 -4.2484236 1.7962722 6.6007948
 -24.4114780 -12.4854603 71.4987793
 -11.9223700 -10.8226671 126.5921783
 -1.0292990 -3.8450420 45.2079353
 -36.6864853 -10.0725231 98.5585098
 -39.6301613 -1.5672954 88.9390717
 -23.9159660 -21.8191643 114.4976730
 -29.9004974 -14.8516932 61.9332008
 -27.8964157 -14.6641188 73.0333405
 6.6433682 -1.1442895 22.8180351
 -9.2525759 -2.7150381 42.5398331
 -31.0638866 -8.9785118 62.6174850
 -20.3544407 -9.2977886 69.2199554
 -10.7448978 -7.8023748 42.4390030
 -2.9655354 1.7075788 4.7887497
 -37.2064514 -3.6431046 87.6555099
 38.7759972 -11.4639940 92.3312149
 47.5612679 -19.9370155 114.9746323
 -56.6310196 -14.4202414 179.3209991
 2.9619095 -0.7216642 18.3324413
 -33.9921799 -18.2478905 69.4828262
 -29.6909008 -11.2186193 64.9213257
 -2.4582558 -9.6385736 115.4028854
 -11.7330256 -10.5479946 91.4418716
 -7.8407459 -2.5303867 67.8931656
 4.0412130 1.0508677 4.9012723
 4.7561164 0.8841404 9.4452400
 -59.3106689 -10.3867254 101.5255356
 -47.3139114 -3.7449138 103.9237442
 -26.4108334 -16.8690948 107.5010986
 1.4062040 1.5034009 2.5073619
 -7.3345456 -14.0546713 118.9703369
 -30.7332611 -14.3441982 66.9433136
 -29.2202854 -15.3715153 75.6538773
 -30.1508751 -6.1742549 104.9388580
 -2.9266472 1.7943341 3.7988038
 -34.4462585 -0.2899142 64.8034134
 -49.5411644 -8.1286831 93.4166565
 -31.4472790 -5.4454341 53.6911850
 6.5274720 -0.5758142 21.8973846
 -4.3575749 -2.3868151 63.8619003
 2.6499829 0.0566314 16.9055653
 -27.5529957 -10.7096043 66.3034897
 -0.3649324 1.0923239 2.3419051
 25.2681160 -8.8765135 77.2008743
 1.7056006 1.4087948 2.7699649
 -30.8869724 -12.7564859 67.3759842
 5.7703643 -0.4338028 21.5927505
 -2.9245276 1.7929667 3.8025014
 -26.0700607 -3.3400583 73.7320251
 -33.3894157 -3.9582632 77.2528610
 -29.4803314 -9.7718363 93.2049866
 -17.6769657 -13.7479973 88.3916473
 26.3639870 -9.3249187 80.5223160
 -2.5328858 1.8350666 3.4211693
 -33.3951378 -13.3857794 118.2426529
 -62.6812859 -3.9497399 111.2683105
 -33.9791069 -22.2020321 112.4758148
 -53.7811165 -3.4512191 95.4871826
 -24.7795448 -13.7609215 86.9277039
 -3.8855221 1.6700761 6.0044546
 -355.2097168 -97.3729401 962.5262451
 -54.2532272 -12.7906733 113.6097870
 12.3054247 -3.3507464 23.5855350
 -15.8807840 -29.9108639 237.8631592
 -2.4342599 1.8116928 3.1921918
 -30.6047249 -14.5272131 55.7557030
 -33.8706512 -12.7711859 106.1905975
 -40.9350815 -14.6389380 75.1276550
 30.4133015 -6.4509029 65.6766663
 -62.7944908 -3.9440794 111.8681412
 -17.8514595 -5.3569870 88.5970917
 -38.3055687 -5.4657989 134.0128174
 -5.1248860 1.6186843 8.9160891
 -4.1362929 1.6174481 7.0731821
 -30.6665611 -14.3196611 66.8658600
 -5.9963608 -8.2592821 100.0346451
 -0.1594373 -14.1015520 131.1578827
 -34.6989136 -5.0823197 77.2865067
 -30.5061913 -14.2670374 66.4431610
 -29.9407272 -9.9057713 73.9275894
 -5.2006807 1.6020802 8.1328773
 -27.6135311 -13.7147818 57.2673073
 30.2740040 -6.6923127 69.3825150
 -5.1310534 1.5777688 8.0174274
 -22.3542747 -3.1833751 62.4979210
 -30.8139229 -4.3842087 71.0615997
 -69.3880157 -20.4242859 145.1753998
 -25.6573753 -5.6409044 91.7699280
 0.4819054 0.6766918 1.7724063
 -41.6108513 -12.1016417 88.3161774
 -55.2697792 -4.5443182 98.0687714
 5.1647582 0.6896110 9.5898104
 2.8060968 1.2746930 3.8192685
 4.6689372 0.9087055 6.4940133
 -25.7096100 -10.4146738 72.9031830
 2.8781774 -0.4024212 17.7132492
 -20.8456974 -11.4085169 95.2430420
 -42.4281464 -14.7193174 75.9323883
 -1.6579977 0.7548295 3.1721985
 -0.1178538 0.8258005 2.1634793
 4.8481698 -0.3487266 19.7101326
 -0.1194381 0.8255743 2.1664941
 -30.1094418 -11.8334675 65.0731125
 -23.1407375 -4.9772983 91.0112991
 -15.0667839 -2.7667754 68.1173706
 -2.8828433 1.7160941 4.8588409
 -0.2162795 0.8474046 2.2347937
 -62.0331383 -9.6051197 116.1392212
 -43.0344086 -7.8353043 92.0418777
 13.5659037 -2.1256025 36.9526215
 -28.9656162 -15.1749754 82.5244827
 -3.4297824 1.6540946 5.9690895
 0.0321495 0.5244302 2.1592805
 -26.9694881 -9.1047096 64.7315674
 -0.9160704 0.8892659 2.6910424
 -28.4645138 -12.5267420 68.5940170
 -31.2185383 -8.6226530 83.8783264
 -11.0571775 -7.7140770 50.3258286
 -1.1357272 -12.5559502 126.0181427
 -12.6796341 -12.0426998 154.1443329
 -7.5559754 0.7857118 25.5866928
 -15.5232468 -12.2284060 144.2556610
 1.6066068 1.4399533 2.5877666
 0.2784089 0.8366948 1.9082363
 -0.6130398 0.7107930 2.4775684
 -3.4356370 1.7750462 4.7985287
 -39.8452110 -14.2438803 73.3177032
 -3.6317186 1.7143929 5.8852930
 -33.4949493 -14.4671965 65.8212967
 -24.9595070 -14.6610451 93.1730576
 0.2298740 0.5158662 1.9548019
 -2.6474328 1.7665892 4.0284629
 39.5715714 -22.2378693 132.4232941
 -31.6314564 -16.4473801 87.0000839
 -23.6635513 -12.0264626 70.0647430
 -28.2444801 -15.3699684 93.7274170
 -0.3896577 1.0309032 2.3569129
 33.2036362 -15.2533073 111.4452591
 -31.3440304 -13.2252970 95.7636108
 -23.6450863 -11.9907808 69.9153595
 35.7144051 -15.4355049 157.0916595
 33.1570778 -10.1088352 95.4994659
 -11.7159071 -16.1120567 122.5665436
 -36.5258255 -2.8597138 93.4816895
 -4.4414282 1.5063336 10.2651777
 30.6654778 -6.7649589 70.5966187
 -4.9536366 -2.8562641 73.2113800
 -32.7082443 -17.7711277 71.1077194
 -37.3670616 -20.4488430 71.5051880
 -26.0685177 -14.1196337 67.1477051
 -24.2573967 -17.1991291 76.4969101
 -18.3862495 -10.8168793 68.5767746
 -29.4133224 -14.4840174 61.1934433
 -25.2592716 -13.9063683 88.2793961
 6.6716704 -0.6326145 20.3813400
 -23.8718681 -8.4159775 61.9754562
 -25.3686447 -6.6545362 81.2268906
 -27.9740200 -17.4629574 87.3502502
 -26.3152561 -14.6174479 110.1411133
 -44.5484047 -8.2478647 95.1464005
 -8.2680359 -15.6138258 122.9618225
 -30.9278641 -13.5342522 108.1536026
 -5.7473640 -3.5286691 61.8271599
 -31.0575657 -25.2396374 165.4523773
 -38.6654587 -23.0188293 144.1830902
 -18.8186893 -16.5254021 69.1684723
 1.2128015 -2.0937781 34.0083809
 7.0639091 -0.8540379 17.9986858
 15.1406355 -3.7544751 23.7771778
 -4.8214269 1.3469510 14.3630848
 -23.5063534 -21.3757629 112.2903900
 -28.3442574 -18.2325191 68.5050812
 -27.4723949 -1.8164762 74.9031143
 -21.3493500 -19.3634815 101.5478592
 -0.1147454 1.0045290 2.1695595
 -25.7122288 -16.4751892 62.0617676
 -26.1602993 -21.2472057 96.1838684
 1.6033033 -0.2832857 16.4422073
 -7.8237820 -13.7143564 125.8327255
 -9.8864021 -17.8373909 158.4048920
 -27.3743076 -16.0539474 68.0316315
 -29.4116783 -14.3646393 61.1907616
 -23.6207829 -9.9719477 78.1889725
 -4.9425845 1.2406116 16.0297241
 35.1585884 -19.8322563 118.0893707
 -27.7093735 -16.4337311 68.7963104
 -26.4047394 -5.2391577 85.0993195
 -18.3147144 -17.3967762 83.3996506
 1.5965890 -0.2789580 16.4207306
 -28.4181900 -7.3172541 91.2523727
 -24.2896214 -14.4057407 60.4498215
 -11.6991158 -16.1993446 122.9099731
 -1.1087902 0.5761065 3.0962577
 -25.6945763 -15.2055416 74.0084000
 -4.8628402 -3.3861947 73.1664429
 -28.5169468 -15.5346470 62.0333786
 -22.5823898 -8.5576620 64.1408691
 -4.0359793 1.6147379 6.4258490
 -18.3293247 -7.7893333 48.2418747
 -97.4727325 -2.1935608 166.1406403
 -29.6375999 -12.4750690 90.3121643
 -1.3457847 0.6478266 2.8974562
 2.6373878 0.0266308 16.8000755
 -20.4741116 -14.6149139 84.8061523
 -41.8665657 -16.0245838 129.7719269
 -22.9918556 -10.6688433 73.8517914
 -4.2317843 1.6863461 6.7311387
 -1.4047430 0.9164714 3.0195296
 8.3643541 -0.0400431 13.2248783
 -24.7106113 -11.7670288 65.4112015
 3.5323288 -0.7830769 18.2868443
 30.7764282 -24.8757267 322.0697632
 -42.4924698 -8.7620735 90.6531754
 2.2605076 -0.6669965 16.7592297
 140.5202942 -107.3894272 1324.0478516
 11.3090916 -8.2304840 25.5273800
 -11.3860569 -15.8840714 162.8062286
 1.5721626 -0.2795915 16.2336559
 6.8965826 -0.7023377 20.9454517
 -26.2646084 -14.1196718 67.0913925
 6.6459870 -4.1852641 54.1768227
 -26.7611980 -16.7766113 55.5293465
 16.1463165 -3.6964622 23.6251526
 -15.7907972 -7.9446664 74.2455521
 -18.8727016 -6.9470973 104.1891251
 0.0287514 0.7084275 2.0664277
 -27.3364220 -11.0243454 105.8871613
 -7.0341811 -17.9359093 172.3198395
 -1.4352651 0.5840990 3.1095045
 11.4224901 -4.5838580 21.9350224
 -7.1049242 -3.2665629 28.5661583
 18.5028000 -8.3784304 88.0525360
 -36.2660446 -25.7542839 170.2754822
 -0.0497270 0.8507386 2.1265099
 -0.7743387 0.8507631 2.6040776
 19.4453049 -5.5312781 40.9765587
 7.2920318 -3.9007592 52.1159859
 -16.3465977 -7.2799363 56.3008461
 -0.3849272 0.8390877 2.3471205
 0.2642628 0.8599048 1.9191350
 0.3576265 0.8375486 1.8581454
 0.0525287 1.0161616 2.0569870
 7.2285981 -2.5845749 46.6193962
 -14.8030787 -6.4381523 43.0400658
 0.2082781 0.8618736 1.9551588
 12.1956615 -3.3245950 22.1565533
 28.9970684 -12.0711994 63.2160301
 -1.7869035 0.6325538 3.1511996
 4.8439784 -3.3868017 15.6369495
 3.7412374 -2.6087794 13.7444925
 10.1231089 -0.1710460 9.3008347
 4.8575845 -3.3993340 15.6825466
 -11.8936949 -2.7209988 77.9518127
 37.7329521 -11.7787943 111.7685242
 38.2622528 -16.0426807 116.0323868
 4.8306375 -2.6719201 59.9118156
 34.5205307 -10.5262432 99.5131226
 2.4405222 -2.7732706 63.2251930
 -9.6499929 -17.3122253 142.7828217
 49.6918106 -21.9419975 243.4796295
 30.7997360 -13.3564701 94.6511765
 -0.6637352 1.0395674 2.5244553
 7.1131864 -4.9483929 66.4294662
 -0.0082350 1.0259551 2.1008875
 32.0852242 -14.7370653 107.8217773
 4.2924500 -2.9304953 60.5087814
 -1.7303197 0.6712807 3.1776783
 6.0585356 -3.4256728 60.9450188
 -2.5573652 -12.4673796 134.0888672
 0.0926329 0.6489661 2.0146167
 -6.6461353 -14.9061165 127.2453461
 138.8203125 -59.9510384 662.1627808
 12.0652647 -3.9527628 74.4046402
 12.5142889 -6.3597574 25.6939964
 0.1057323 0.6519325 2.0138965
 -11.8916388 -12.9028864 92.8899918
 -4.1154728 -16.9697685 122.6584091
 -0.1218733 0.6725321 2.1558855
 -4.0804825 -17.5658436 129.4986877
 -12.6744995 -8.9302998 96.8893356
 81.4734192 -35.3297119 358.7314453
 -1.4510105 1.4172537 3.0644848
 -1.4827814 0.9921505 3.0852122
 33.8467102 -12.2360840 103.7166824
 38.3087730 -29.6703777 367.0302124
 66.3186111 -29.5053921 322.9133911
 -0.3256227 0.5182791 2.9620304
 24.4518166 -2.1234879 24.2585869
 0.1862887 0.4404478 3.5132546
 -0.3725712 0.5189188 2.8737063
 5.6371012 1.1810038 -10.8428869
 5.4658442 1.1583652 -10.2399244
 0.5635756 1.5387113 4.0202370
 1.6318419 4.8202000 -63.4176903
 -11.1014957 5.1398778 -61.0060806
 -0.0768680 1.5513806 2.4636304
 0.3389217 1.0543152 2.1414037
 -79.0778961 8.3726511 -37.7909279
 -66.9368591 7.6612072 -39.7629471
 -71.2504501 6.2391763 -49.7734032
 -79.2125778 8.3696270 -37.7143250
 -58.7651138 7.9847178 -49.2621574
 -50.7225761 5.8039675 -29.4829845
 -62.8636971 8.5407658 -53.0039330
 -55.0569954 7.4767790 -46.0440063
 -69.2491455 8.2718563 -48.3598824
 -54.7537155 7.5196123 -45.8484917
 -204.0354004 18.2991467 -58.8047409
 -1.4264019 0.6095809 3.1698732
 0.6809275 0.5818284 11.7254505
 -1.5294144 0.7354096 3.1053355
 -1.7944355 1.4855669 3.5694218
 -5.3423495 -3.6675298 76.5240707
 -1.0013651 0.5077851 3.4340415
 -12.4431877 -8.6940508 94.8308868
 4.0471978 1.0006479 5.3181238
 -21.0675888 -16.6505680 105.9606552
 -0.7979947 1.4499054 2.6393199
 31.9899559 -11.2177277 97.0559387
 -16.4283123 -12.8231735 82.3509293
 -0.4197659 1.2170213 2.3750947
 -0.3541743 0.5582509 2.4774446
 -2.1916275 1.6842390 4.3606229
 -0.0102566 0.5200972 2.4951909
 -1.2329234 1.7536923 2.6919777
 -21.3306141 -9.7188511 95.7610016
 -0.1614842 0.9085643 2.1956317
 -1.0593030 0.5482836 3.4128690
 -27.1113758 -5.1289620 103.6226349
 0.2650169 0.6581091 1.9072843
 -2.6396177 1.0690407 15.3316307
 -9.5975208 -8.3448629 99.8255463
 -14.3164377 -5.5693245 107.3424835
 -19.2572899 -17.5465431 207.9303436
 -11.2307358 -4.0410528 71.5412064
 3.5110145 -0.5918625 18.5417252
 -13.5402012 -2.0536716 67.9048996
 -17.6060638 -9.3712683 90.1571808
 4.9752965 -0.3113508 20.1052685
 6.3232107 -0.5474005 22.4026680
 -1.3470998 0.5980404 3.3551898
 -0.7109225 1.0671482 2.5537181
 -13.3918858 -2.1080887 67.3648224
 -26.3775406 -5.1710720 115.7853394
 -26.2106857 -4.7251606 115.1998215
 0.1253691 0.8537304 2.0134151
 16.0256310 -1.0568876 18.6754169
 -0.8415709 0.5230239 3.7771871
 -0.1479125 0.4778163 3.9785256
 0.0132254 0.4486752 3.7328994
 52.8541489 -19.5659008 188.7796631
 0.2523661 0.4666351 3.0613859
 -2.4847834 1.7653553 3.8945684
 -1.8132094 1.5317061 3.4699521
 -0.0107632 0.5160296 2.4892902
 -1.7827201 1.7108943 3.3788028
 -0.4332728 0.5320575 3.0123024
 -0.3313116 0.5218052 2.9533384
 -0.8363394 0.5172361 3.7556705
 -0.3266239 0.5058859 2.9025333
 -1.4171088 0.6067626 3.1496873
 6.3480763 0.6151372 7.9626994
 -1.4323207 0.5937303 3.1564474
 -1.0699239 0.5571655 3.4472384
 5.8611336 -0.6978602 21.3976421
 3.4937825 1.1110575 4.9310842
 0.1767986 0.6296651 1.9363298
 9.1270084 0.1258530 9.5147247
 53.0885620 -11.0541487 109.7960510
 4.8340883 0.9130213 5.5975780
 -0.7810754 0.9843009 2.6094375
 9.0774212 0.1298289 9.4780884
 0.2377701 0.5208761 2.2694280
 2.2982361 -2.5658178 59.6659508
 6.5341816 0.6209573 6.9040771
 5.2038407 0.8504089 5.7785459
 4.8266797 0.9119713 5.5976725
 3.8136172 1.1016749 4.4829712
 9.0838327 0.1270327 9.4788647
 4.8789697 0.9197143 5.6441083
 8.5114956 0.2626411 8.4634905
 -0.2521149 0.5442642 2.5958829
 4.7841258 0.9139924 5.3300076
 4.5968814 0.8521578 6.0098629
 -1.4369335 0.5897059 3.1939003
 3.9093626 0.8928734 6.9830165
 7.8961945 -0.0214807 18.4126225
 7.7243881 -0.0396994 17.9662418
 -0.3353172 0.5089201 2.9055436
 -1.3229462 0.5684490 3.2054327
 -1.1221703 0.5699936 2.8819611
 0.0285737 0.4816447 2.9002159
 -0.4340577 0.5456821 2.7021732
 -0.9073815 0.8983021 2.6849439
 -0.4721650 0.8792993 2.4006495
 -1.5179927 0.6177879 3.2143178
 0.1104951 0.4536107 3.6018624
 -0.0041478 0.7876931 2.0893519
 -1.5320925 0.6109774 3.1880741
 -1.0485793 1.0631046 2.7829008
 -1.3004696 1.0819004 2.9402025
 4.7322159 0.8261619 6.8072081
 -0.2739067 0.8307951 2.2722361
 -0.6101249 0.5288436 3.5028312
 4.7876878 0.8377203 6.8808417
 -8.9700184 -2.0570457 55.3530350
 -4.7622018 -4.5528002 66.0336075
 -7.6052155 -2.0502663 56.0439339
 3.1342227 -4.8394408 75.9702682
 -9.4686680 -4.7188587 67.5802002
 -5.4554386 -5.7012939 77.5215530
 -4.4850292 -6.4734535 80.6945114
 -1.8589528 1.1569395 11.8346729
 -3.2182026 -4.1969247 66.2044296
 3.8596063 1.1113595 4.5167508
 4.0690889 -3.3845153 15.7898035
 -1.4423379 0.6814366 2.9680064
 6.4930182 -0.6063733 19.9259987
 0.1091427 0.8357730 11.7542753
 -0.1514655 0.5362875 2.3325031
 3.8560698 1.0654643 4.7289562
 0.2812358 0.8322204 1.8994632
 52.7506409 -12.2476406 53.5964394
 0.1006308 0.7752230 2.0104930
 26.0183544 -3.9078820 28.6967735
 9.9885635 -3.0194991 26.5850277
 0.0032828 -1.3651738 22.0345516
 -1.4056628 0.6086137 3.1318710
 -1.6476650 0.7762129 3.2002022
 0.4747462 0.5232375 1.9521058
 -15.2820377 -3.4632969 61.2949448
 -10.2835808 -2.1437755 62.9625206
 -2.8810582 1.4286267 8.5203142
 4.2121339 -0.3600412 19.9937267
 3.8057859 1.0991300 4.4813142
 -1.1559939 -2.6200833 51.7076263
 -4.4618292 -6.7509379 85.5543671
 -4.9218874 -7.3224802 89.6201096
 0.2780347 0.4711013 2.5480042
 -2.8804772 1.4399805 8.5601301
 31.4142303 -16.8040447 98.6970978
 10.0566683 -3.6164451 21.7818508
 4.5569515 -3.5103960 17.1879520
 4.6291990 -4.0778666 15.8473740
 7.3631868 -0.8531348 17.5165882
 20.3499260 -1.6232498 22.9920883
 91.6881180 -26.1325836 92.7511520
 31.9068184 -17.2162552 100.2278595
 -10.9966631 -4.0343437 81.6850739
 -1.4821478 0.8676020 3.0803819
