ply
format ascii 1.0
element vertex 1293
property float x
property float y
property float z
property uchar red
property uchar green
property uchar blue
end_header
9.15335 1.10035 5.62898 95 95 95
-1.27086 0.502944 6.04994 36 36 36
8.37045 1.07881 5.57203 64 64 64
-1.57035 0.309023 6.33042 78 78 78
8.31759 1.10992 5.57307 104 104 104
-1.61135 0.275285 6.39861 254 254 254
8.01865 1.23344 5.30249 197 197 197
-2.219 -0.0486923 7.07287 160 160 160
8.01865 1.23344 5.30249 197 197 197
-2.56799 -0.165478 7.40368 75 75 75
7.94057 1.23602 5.26976 170 170 170
-2.61787 -0.24197 7.51274 247 247 247
7.93743 1.23728 5.26507 170 170 170
-2.83012 -0.240725 7.58404 49 49 49
7.8472 1.1074 5.51067 99 99 99
-2.83012 -0.240725 7.58404 49 49 49
7.96998 1.05999 5.64117 108 108 108
-2.89716 -0.257837 7.62565 107 107 107
7.38769 1.23487 5.12447 93 93 93
-3.30096 -0.465846 8.22248 80 80 80
7.35244 1.24403 5.15295 154 154 154
-3.51791 -0.599216 8.64564 95 95 95
7.46499 1.07195 5.50868 180 180 180
-4.08222 -0.868307 9.46999 253 253 253
7.32521 1.1579 5.28506 161 161 161
-4.12222 -0.870887 9.46372 241 241 241
7.32356 1.15734 5.28156 161 161 161
-4.12222 -0.870887 9.46372 241 241 241
7.20934 1.09764 5.37458 116 116 116
0.451936 1.1681 4.80638 210 210 210
6.75013 1.17609 5.0932 246 246 246
0.155224 1.0304 5.05564 101 101 101
6.75013 1.17609 5.0932 246 246 246
-0.0133511 1.00772 5.19238 240 240 240
6.51533 1.18859 5.00506 213 213 213
-0.02175 0.833652 5.39103 202 202 202
6.57529 1.16293 5.08837 111 111 111
-0.128308 0.843306 5.38481 163 163 163
6.44492 1.04701 5.11973 198 198 198
-0.376978 0.78405 5.55699 184 184 184
6.21561 1.21711 4.82783 112 112 112
-0.516201 0.619686 5.72253 54 54 54
6.20464 1.19506 4.86604 254 254 254
-0.879913 0.446904 6.01678 243 243 243
6.20418 1.19486 4.86523 254 254 254
-0.960144 0.443265 6.0607 55 55 55
5.68572 1.18131 4.7179 206 206 206
-1.45015 0.279148 6.39255 192 192 192
5.50402 1.25295 4.62686 110 110 110
-1.42696 0.211007 6.47547 246 246 246
5.4415 1.1432 4.74064 255 255 255
-1.57606 0.166858 6.57513 50 50 50
5.44069 1.14391 4.73806 255 255 255
-1.62805 0.0612601 6.66886 252 252 252
5.37914 1.22741 4.60898 181 181 181
-1.81943 0.0968774 6.6824 254 254 254
5.37682 1.22789 4.60496 181 181 181
-2.00704 -0.129614 7.05467 212 212 212
5.27169 1.16838 4.5897 89 89 89
-2.23386 -0.127459 7.17286 253 253 253
5.21393 1.12663 4.66725 94 94 94
-2.44551 -0.265267 7.48154 244 244 244
5.21457 1.12668 4.6684 94 94 94
-2.78725 -0.356009 7.69754 85 85 85
5.08958 1.22288 4.52315 96 96 96
-3.28613 -0.661539 8.71103 85 85 85
5.00078 1.24042 4.4895 220 220 220
1.04338 1.17133 4.73309 66 66 66
5.02821 1.17847 4.54749 199 199 199
0.548735 1.02192 4.96785 149 149 149
5.03167 1.15273 4.58468 127 127 127
-0.0770258 0.787741 5.43171 195 195 195
5.03192 1.1528 4.58542 127 127 127
0.185031 0.799892 5.40714 63 63 63
4.72313 1.15565 4.48284 117 117 117
-0.0751266 0.754585 5.51241 70 70 70
4.57072 1.1863 4.42552 113 113 113
-0.250459 0.607111 5.69949 88 88 88
4.51615 1.11455 4.47933 192 192 192
-0.41934 0.536675 5.80459 69 69 69
4.36159 1.18494 4.40125 251 251 251
-0.816727 0.386713 6.05601 136 136 136
3.97463 1.24488 4.28673 104 104 104
-0.816727 0.386713 6.05601 136 136 136
3.97445 1.24445 4.27689 104 104 104
-0.782265 0.368254 6.11736 60 60 60
3.89358 1.21369 4.329 121 121 121
-0.953625 0.307701 6.21284 187 187 187
3.97455 1.15688 4.36801 114 114 114
-1.31978 0.0953226 6.54004 80 80 80
2.60616 1.15498 4.30534 120 120 120
-1.35628 0.0180804 6.64472 145 145 145
2.60652 1.15478 4.30382 120 120 120
-1.84086 -0.211012 7.1202 252 252 252
2.60833 1.12722 4.33238 253 253 253
-2.12515 -0.289779 7.35917 56 56 56
2.55088 1.20147 4.21166 186 186 186
-2.26922 -0.404814 7.56124 117 117 117
2.50155 1.14995 4.30133 223 223 223
-2.4192 -0.342664 7.56179 249 249 249
2.43747 1.17973 4.29905 133 133 133
-2.70517 -0.65036 8.25644 250 250 250
1.76626 1.12657 4.51143 126 126 126
-2.96873 -0.687366 8.56312 208 208 208
1.38918 1.21703 4.52308 104 104 104
-3.85755 -1.13959 9.96542 245 245 245
1.2968 1.14263 4.67098 148 148 148
1.02171 0.97247 5.0186 85 85 85
1.26388 1.26748 4.51996 113 113 113
0.658999 0.887292 5.19234 86 86 86
0.964165 1.32069 4.46395 174 174 174
0.205426 0.694436 5.49611 51 51 51
0.658307 1.26763 4.56398 195 195 195
0.0808964 0.597822 5.64345 56 56 56
0.508864 1.15382 4.70238 146 146 146
-0.188938 0.526619 5.73198 179 179 179
0.552363 1.32757 4.46026 85 85 85
-0.525929 0.399147 5.96284 212 212 212
11.3251 0.82669 6.90213 178 178 178
-1.16077 -0.00798012 6.59591 60 60 60
11.3791 0.784788 6.96788 118 118 118
-1.57465 -0.151325 6.92155 80 80 80
9.60766 0.987581 5.95934 235 235 235
-1.57465 -0.151325 6.92155 80 80 80
9.61883 0.987883 5.97353 235 235 235
-1.66434 -0.240004 7.02863 61 61 61
9.27941 0.925599 5.99058 106 106 106
-1.6263 -0.303118 7.15716 186 186 186
9.60854 0.737923 6.48664 132 132 132
-1.6263 -0.303118 7.15716 186 186 186
8.81769 0.855911 6.05316 170 170 170
-1.96184 -0.336614 7.30229 160 160 160
8.30273 0.892817 5.94073 114 114 114
-2.05447 -0.532485 7.61655 66 66 66
7.97193 0.978589 5.76823 67 67 67
-2.41673 -0.626826 8.01994 184 184 184
7.86318 0.966613 5.74385 97 97 97
-2.45276 -0.733844 8.2392 207 207 207
7.87883 0.911127 5.79618 65 65 65
-2.74386 -0.719879 8.4698 220 220 220
7.39908 0.934591 5.58286 104 104 104
-2.89887 -0.848728 8.78381 106 106 106
7.35552 0.819794 5.65882 110 110 110
-2.99438 -0.894188 9.00923 241 241 241
7.03155 0.979957 5.3945 249 249 249
-3.04194 -0.888909 9.01397 98 98 98
6.95334 0.920708 5.40103 123 123 123
1.67934 1.04076 4.67539 252 252 252
6.60351 0.951742 5.29102 101 101 101
1.30883 0.885107 5.02142 173 173 173
6.40376 1.03538 5.13276 102 102 102
0.81752 0.741634 5.28508 196 196 196
6.50014 0.969221 5.2968 111 111 111
0.594134 0.531632 5.55103 72 72 72
6.67469 0.899363 5.38564 104 104 104
0.455239 0.464114 5.65682 249 249 249
6.24929 0.856583 5.32573 101 101 101
0.299538 0.454993 5.73291 223 223 223
5.85187 0.987893 4.98127 209 209 209
0.199317 0.376772 5.83959 254 254 254
5.66368 1.0275 4.85471 249 249 249
-0.0840294 0.382189 5.90409 67 67 67
5.66558 1.02734 4.86114 249 249 249
0.0621316 0.342543 5.90315 69 69 69
5.67685 0.999971 4.88672 136 136 136
-0.138719 0.202731 6.07598 241 241 241
5.90676 0.89991 5.16589 248 248 248
-0.423611 0.171693 6.18661 255 255 255
5.90609 0.900214 5.16386 248 248 248
-0.521709 0.0974359 6.27091 160 160 160
5.89275 0.878096 5.19843 89 89 89
-0.722833 0.0214976 6.42994 50 50 50
5.63393 1.05661 4.8397 99 99 99
-0.670271 -0.00275981 6.45873 204 204 204
5.50846 0.97791 4.9409 250 250 250
-0.670271 -0.00275981 6.45873 204 204 204
5.55497 0.956498 4.96623 100 100 100
-1.25305 -0.172951 6.8449 243 243 243
5.54796 0.893235 5.04679 98 98 98
-1.70619 -0.374314 7.3058 213 213 213
5.33421 0.892239 4.97029 127 127 127
-1.58532 -0.464292 7.31932 82 82 82
5.16315 1.00994 4.81064 103 103 103
-2.45361 -0.892451 8.53421 111 111 111
5.08125 1.01409 4.78451 198 198 198
-3.14721 -1.17973 9.52196 87 87 87
5.22991 0.91931 4.91626 245 245 245
-3.10077 -1.27549 9.58563 126 126 126
4.99233 1.04973 4.70664 255 255 255
1.74969 0.934718 4.70985 141 141 141
4.90978 1.03476 4.69126 130 130 130
1.13441 0.6593 5.31206 139 139 139
4.80254 1.05999 4.63285 130 130 130
1.03727 0.611209 5.40331 251 251 251
4.80254 1.05999 4.63285 130 130 130
1.03727 0.611209 5.40331 251 251 251
4.87409 0.880562 4.82172 125 125 125
1.15149 0.549107 5.42928 171 171 171
4.66076 0.97496 4.65122 174 174 174
1.04353 0.518471 5.50886 249 249 249
4.66076 0.97496 4.65122 174 174 174
0.844215 0.514712 5.52945 62 62 62
4.54938 0.992772 4.62019 129 129 129
0.844215 0.514712 5.52945 62 62 62
4.4364 0.912442 4.6714 113 113 113
0.835983 0.485866 5.57064 64 64 64
4.39589 0.960026 4.60231 110 110 110
0.657836 0.448794 5.62751 53 53 53
4.35716 0.914583 4.66065 125 125 125
0.3604 0.339818 5.86209 69 69 69
4.26597 0.888103 4.67819 253 253 253
0.069827 0.179681 6.0893 255 255 255
4.14913 0.888808 4.69353 254 254 254
-0.654203 -0.148387 6.61624 76 76 76
3.92722 1.0575 4.46759 141 141 141
-1.09605 -0.343412 6.97267 69 69 69
3.99716 1.00098 4.57922 123 123 123
-1.01074 -0.394219 6.97732 59 59 59
3.86195 1.00856 4.52293 253 253 253
-1.56557 -0.507919 7.35994 240 240 240
3.86194 1.00864 4.52337 253 253 253
-1.49211 -0.5582 7.37975 229 229 229
3.88407 0.984173 4.54793 138 138 138
-1.49211 -0.5582 7.37975 229 229 229
3.8254 0.942572 4.58302 118 118 118
-1.58039 -0.611648 7.48841 254 254 254
3.78122 1.08701 4.46248 151 151 151
-1.58039 -0.611648 7.48841 254 254 254
3.61213 1.07944 4.43657 169 169 169
-1.50719 -0.618447 7.47917 255 255 255
3.56096 1.00674 4.50472 253 253 253
-2.13586 -0.827314 8.17423 72 72 72
3.51541 1.07486 4.42497 150 150 150
-1.94908 -0.929909 8.22434 255 255 255
3.5806 0.951206 4.52959 144 144 144
-3.00661 -1.50683 10.0053 65 65 65
3.37989 0.917027 4.52416 229 229 229
-3.11611 -1.5529 10.0973 119 119 119
3.29625 0.95565 4.47486 120 120 120
1.87047 0.856657 4.70378 68 68 68
3.16557 1.05806 4.38857 152 152 152
1.731 0.727293 5.02768 249 249 249
3.09238 1.04297 4.41085 139 139 139
0.893159 0.198271 5.86315 77 77 77
3.22595 0.979614 4.44638 142 142 142
0.652275 0.205536 5.91591 86 86 86
3.10483 0.920647 4.48407 196 196 196
0.113682 0.0116057 6.21425 82 82 82
2.88189 1.04207 4.42027 147 147 147
-0.485014 -0.363994 6.79263 254 254 254
2.97464 0.976221 4.46684 248 248 248
-0.485014 -0.363994 6.79263 254 254 254
2.77622 1.05262 4.39939 132 132 132
-0.764625 -0.405726 6.94386 207 207 207
2.77433 1.05349 4.40427 132 132 132
-0.746467 -0.530872 7.0412 235 235 235
2.64858 1.1059 4.34867 249 249 249
-0.834912 -0.593508 7.15048 103 103 103
2.62256 1.09507 4.34536 154 154 154
-0.984037 -0.611998 7.18914 83 83 83
2.59738 1.01022 4.44845 134 134 134
-1.20484 -0.634641 7.34228 89 89 89
2.59745 1.00995 4.44829 134 134 134
-1.40804 -0.754304 7.60045 210 210 210
2.45612 1.10707 4.36898 120 120 120
-2.32787 -1.26434 9.10657 208 208 208
2.45186 0.993314 4.49799 137 137 137
-2.71447 -1.55057 9.87678 106 106 106
2.25212 1.10323 4.37844 102 102 102
-3.32703 -2.09572 11.3948 253 253 253
2.21297 0.933566 4.59026 249 249 249
2.38304 0.755776 4.76628 253 253 253
2.01888 1.00616 4.54458 143 143 143
2.38304 0.755776 4.76628 253 253 253
2.01122 0.956437 4.62209 150 150 150
2.22016 0.608631 4.95225 84 84 84
0.82027 1.01193 4.97196 112 112 112
1.80822 0.392481 5.338 97 97 97
0.727435 1.0536 4.95398 179 179 179
1.21855 0.266303 5.72777 49 49 49
0.672179 1.13725 4.84242 102 102 102
1.21855 0.266303 5.72777 49 49 49
11.4542 0.376329 7.91113 99 99 99
0.728593 0.0729031 6.06644 86 86 86
10.6839 0.589219 7.33499 164 164 164
0.827354 0.0471814 6.06217 234 234 234
9.4097 0.635752 6.66953 248 248 248
0.718333 0.0421268 6.08628 238 238 238
9.3129 0.605963 6.65693 166 166 166
0.340308 -0.106159 6.30072 240 240 240
8.71038 0.734986 6.27404 176 176 176
0.326465 -0.130018 6.34962 232 232 232
8.22188 0.713938 6.20216 251 251 251
0.401282 -0.247668 6.42402 75 75 75
8.22141 0.712081 6.20062 251 251 251
0.213918 -0.373472 6.62408 73 73 73
8.37909 0.571832 6.37826 144 144 144
0.00153741 -0.313197 6.59826 68 68 68
8.23504 0.548572 6.40309 250 250 250
-0.20878 -0.385959 6.73495 169 169 169
7.99495 0.656051 6.21614 210 210 210
-0.534376 -0.462481 6.92135 57 57 57
7.90016 0.695039 6.09319 108 108 108
-0.472898 -0.514833 6.99178 203 203 203
8.0197 0.623143 6.27446 103 103 103
-0.567591 -0.567039 7.03568 50 50 50
8.05457 0.534395 6.34936 111 111 111
-1.60579 -1.21547 8.41064 251 251 251
7.62827 0.766149 5.8702 250 250 250
-1.72688 -1.31317 8.5388 255 255 255
7.62197 0.766515 5.85816 250 250 250
-1.8471 -1.28239 8.58275 112 112 112
7.58878 0.762801 5.89918 108 108 108
-2.08072 -1.45442 9.03921 140 140 140
7.69144 0.637286 6.08445 111 111 111
-2.75856 -1.97295 10.4502 208 208 208
7.70158 0.638448 6.10542 111 111 111
-2.88423 -1.929 10.5537 102 102 102
7.75514 0.591956 6.20583 193 193 193
2.36746 0.378414 5.18651 254 254 254
7.75927 0.591133 6.21389 193 193 193
2.25191 0.247916 5.38485 230 230 230
7.41652 0.638639 5.95752 107 107 107
2.25191 0.247916 5.38485 230 230 230
7.29729 0.600336 5.95246 252 252 252
2.1056 0.179689 5.49553 251 251 251
7.32986 0.564821 6.00478 116 116 116
1.72088 0.0628262 5.75764 248 248 248
6.97978 0.69073 5.7037 100 100 100
1.72088 0.0628262 5.75764 248 248 248
7.11445 0.552204 5.9779 102 102 102
1.81483 0.0391514 5.77816 118 118 118
7.04386 0.562166 5.95024 98 98 98
1.608 0.0538433 5.81736 74 74 74
6.69106 0.786468 5.48425 98 98 98
1.2489 0.0645823 5.93269 242 242 242
6.64992 0.715978 5.55137 235 235 235
1.31413 0.0386097 5.93491 59 59 59
6.65091 0.715483 5.55451 235 235 235
1.34935 0.0280378 5.90042 219 219 219
6.75189 0.597962 5.8247 120 120 120
1.30426 -0.117397 6.13556 239 239 239
6.55595 0.64763 5.62222 70 70 70
0.764529 -0.356535 6.5075 78 78 78
6.2511 0.792357 5.37149 252 252 252
0.389446 -0.358461 6.54261 254 254 254
6.05319 0.763031 5.34149 238 238 238
-0.236791 -0.698554 7.10967 80 80 80
5.64577 0.791627 5.2808 228 228 228
-0.598399 -0.88745 7.37115 255 255 255
5.78057 0.650344 5.42546 128 128 128
-0.957525 -1.09328 7.75318 206 206 206
5.3204 0.816078 5.0746 105 105 105
-1.24534 -1.13412 7.98873 99 99 99
5.53926 0.680555 5.33276 128 128 128
-1.24684 -1.16636 8.09038 94 94 94
5.53926 0.680555 5.33276 128 128 128
-1.48695 -1.40747 8.50166 102 102 102
5.06313 0.757625 5.03933 186 186 186
-1.57551 -1.38689 8.54184 229 229 229
5.23783 0.710272 5.1468 111 111 111
-1.61884 -1.39981 8.57712 255 255 255
5.02619 0.658744 5.13926 100 100 100
-1.73785 -1.57913 9.02161 105 105 105
4.7684 0.796924 4.90888 109 109 109
-2.5298 -1.91557 10.2521 136 136 136
4.77177 0.673672 5.03442 106 106 106
-2.57388 -1.93097 10.2879 111 111 111
4.71547 0.656552 5.03397 108 108 108
-2.52817 -2.1888 10.7322 149 149 149
4.22209 0.724875 4.88767 112 112 112
-2.62629 -2.16632 10.7335 108 108 108
4.07661 0.820288 4.77013 132 132 132
2.80842 0.20118 5.35133 98 98 98
4.10949 0.724488 4.87727 116 116 116
2.27525 0.165505 5.45209 83 83 83
3.83449 0.806548 4.7181 118 118 118
2.37893 0.107386 5.50161 106 106 106
3.89523 0.723131 4.84744 217 217 217
1.94962 0.00852215 5.73588 237 237 237
3.6312 0.732729 4.76739 121 121 121
2.01363 -0.13288 5.87709 83 83 83
3.23833 0.762712 4.67734 141 141 141
1.55963 -0.32784 6.2686 77 77 77
3.14589 0.897804 4.51569 137 137 137
0.932495 -0.599389 6.69444 77 77 77
3.06876 0.822675 4.61043 106 106 106
0.510777 -0.724712 6.93909 66 66 66
3.12214 0.809589 4.61398 115 115 115
0.263431 -0.776156 7.0618 84 84 84
3.1155 0.776462 4.6458 213 213 213
0.00124355 -0.810842 7.16745 63 63 63
2.95638 0.908452 4.52163 250 250 250
0.0555195 -0.995223 7.33551 184 184 184
2.933 0.840953 4.57949 251 251 251
-0.307546 -0.993705 7.42448 71 71 71
2.933 0.840953 4.57949 251 251 251
-0.840154 -1.11247 7.66948 252 252 252
2.98045 0.805349 4.60491 229 229 229
-0.840154 -1.11247 7.66948 252 252 252
2.99948 0.774593 4.63233 130 130 130
-2.00512 -2.04784 10.1499 255 255 255
2.9995 0.774708 4.63304 130 130 130
-1.95719 -2.24036 10.5671 246 246 246
2.81067 0.863909 4.58054 147 147 147
-1.95719 -2.24036 10.5671 246 246 246
2.74029 0.82151 4.63883 144 144 144
-2.20081 -2.4388 11.1106 254 254 254
2.71616 0.89346 4.57421 141 141 141
-2.97087 -2.84657 12.3098 118 118 118
2.69652 0.843208 4.62533 146 146 146
1.63104 -0.408253 6.35096 63 63 63
2.77314 0.771712 4.69275 250 250 250
1.00941 -0.693063 6.77389 178 178 178
2.73838 0.788789 4.65736 226 226 226
0.791878 -0.855529 6.97871 88 88 88
2.63893 0.811805 4.67699 123 123 123
0.791878 -0.855529 6.97871 88 88 88
2.44799 0.889613 4.63314 118 118 118
0.60603 -1.02397 7.23206 104 104 104
2.54361 0.791423 4.73375 247 247 247
0.596002 -1.07219 7.29279 104 104 104
2.51575 0.781109 4.73956 142 142 142
-0.0313624 -1.10297 7.47743 80 80 80
2.4803 0.766298 4.76712 247 247 247
-0.264366 -1.15892 7.55111 90 90 90
2.26976 0.891549 4.66418 128 128 128
-0.0490469 -1.3716 7.7744 172 172 172
2.2009 0.767833 4.82752 249 249 249
-0.291483 -1.45099 8.05767 188 188 188
2.2009 0.767833 4.82752 249 249 249
-0.36446 -1.48712 8.17799 106 106 106
2.13782 0.792535 4.81821 132 132 132
-0.432743 -1.4712 8.1719 244 244 244
2.0866 0.783443 4.82891 250 250 250
-0.600178 -1.52587 8.32742 105 105 105
2.01887 0.806869 4.80971 136 136 136
-1.34594 -1.89299 9.20208 188 188 188
1.82617 0.85141 4.8619 222 222 222
-1.53836 -2.04336 9.46467 255 255 255
1.78641 0.868431 4.83184 146 146 146
-1.53836 -2.04336 9.46467 255 255 255
1.84751 0.826876 4.84679 101 101 101
2.28883 -0.540275 6.20624 96 96 96
1.71862 0.846575 4.86669 117 117 117
1.03928 -0.982649 7.07806 253 253 253
1.62416 0.893773 4.84836 213 213 213
0.844862 -1.22856 7.41019 199 199 199
1.75857 0.822059 4.88764 110 110 110
0.410265 -1.23293 7.48612 255 255 255
1.55147 0.751193 5.07617 117 117 117
0.465283 -1.27526 7.53168 91 91 91
1.36489 0.758794 5.16456 127 127 127
-0.691579 -1.99284 9.0088 94 94 94
1.30868 0.886092 5.00172 114 114 114
-0.981524 -2.24388 9.59139 95 95 95
1.05092 0.848334 5.1484 117 117 117
-1.13957 -2.59038 10.4981 194 194 194
1.19439 0.769556 5.19499 108 108 108
-1.49494 -2.69489 11.0653 172 172 172
1.15788 0.750173 5.22965 240 240 240
-1.94757 -2.95672 11.8392 117 117 117
1.11682 0.80825 5.19227 138 138 138
-1.85171 -3.19328 12.1075 111 111 111
0.944549 0.885811 5.17665 118 118 118
-2.67053 -3.42767 12.9287 214 214 214
0.928382 0.753012 5.23303 179 179 179
2.6614 -0.676312 6.24589 80 80 80
0.662856 0.776124 5.31696 111 111 111
2.48716 -0.827679 6.44124 92 92 92
0.642618 0.775439 5.29874 237 237 237
2.43828 -0.770222 6.46563 108 108 108
0.638625 0.775032 5.30655 237 237 237
1.26572 -1.27031 7.31353 103 103 103
0.611746 0.77124 5.3014 117 117 117
1.1016 -1.54571 7.65164 207 207 207
0.481215 0.824375 5.24446 206 206 206
1.1016 -1.54571 7.65164 207 207 207
0.107545 0.808513 5.40663 123 123 123
0.589612 -1.83689 8.18641 219 219 219
-0.17733 0.747421 5.51131 108 108 108
-0.179305 -2.15807 8.79237 125 125 125
13.4486 -0.030777 9.21585 96 96 96
-0.887664 -2.9251 11.0608 219 219 219
11.7498 0.23213 8.34708 179 179 179
-0.875792 -3.04537 11.2297 233 233 233
11.2573 0.324594 8.04489 164 164 164
-1.08839 -3.10679 11.4818 245 245 245
10.9662 0.307104 7.96396 105 105 105
-1.7229 -3.79588 12.8651 191 191 191
11.0341 0.257553 8.04902 226 226 226
-1.86019 -3.82361 12.9963 122 122 122
10.2578 0.304766 7.68282 91 91 91
-1.86019 -3.82361 12.9963 122 122 122
9.84464 0.142115 7.72451 101 101 101
2.69014 -1.24072 6.88093 70 70 70
9.84464 0.142115 7.72451 101 101 101
1.43963 -1.87752 7.92903 180 180 180
9.16107 0.386372 6.96855 231 231 231
1.37457 -1.89802 8.0564 84 84 84
9.07939 0.410876 6.94612 116 116 116
0.120521 -2.2604 8.71321 113 113 113
8.71556 0.401075 6.86999 180 180 180
-0.342506 -2.65738 10.0508 213 213 213
8.94962 0.29639 7.07419 173 173 173
-0.298087 -3.16596 11.0078 194 194 194
8.98421 0.254362 7.17427 122 122 122
-0.635553 -3.55094 11.7489 254 254 254
8.88313 0.224565 7.12119 189 189 189
-0.76004 -3.49218 11.7495 116 116 116
4.99146 0.887728 0.343399 118 118 118
-1.08116 -3.38814 11.8002 133 133 133
8.1676 0.368915 6.6369 230 230 230
-1.95845 -4.18799 13.4993 153 153 153
7.9827 0.448922 6.44948 110 110 110
-2.24766 -4.3255 13.7816 138 138 138
8.16221 0.215504 6.83514 114 114 114
1.82702 -1.87488 7.79745 93 93 93
7.51668 0.25707 6.51823 125 125 125
1.80316 -2.18364 8.22354 70 70 70
6.99752 0.494561 5.99566 221 221 221
1.08185 -2.19311 8.42287 93 93 93
7.07845 0.431273 6.0732 124 124 124
0.909833 -2.44478 8.68011 82 82 82
7.22495 0.353711 6.25062 125 125 125
0.312289 -2.66928 9.04226 99 99 99
7.07681 0.32699 6.20792 126 126 126
0.392001 -2.74018 9.10989 227 227 227
6.86728 0.52809 5.93208 246 246 246
0.0724457 -2.82852 9.81025 252 252 252
6.75112 0.561959 5.8716 228 228 228
3.24462 -2.45509 8.47381 86 86 86
6.6321 0.481941 5.85833 241 241 241
2.1247 -2.55685 8.73473 184 184 184
6.92122 0.405284 6.06673 203 203 203
3.74343 -1.51192 5.75382 125 125 125
6.92138 0.404913 6.06746 203 203 203
6.44587 0.518007 5.7337 252 252 252
3.376 -2.7136 8.85449 99 99 99
6.11685 0.390318 5.79762 204 204 204
5.8859 0.386916 5.67581 144 144 144
5.70929 0.605132 5.35691 124 124 124
5.727 0.549173 5.51229 176 176 176
5.79468 0.452327 5.59474 215 215 215
5.79468 0.452327 5.59474 215 215 215
5.23787 0.532391 5.34187 126 126 126
4.94523 0.48363 5.31741 109 109 109
4.91446 0.425718 5.35559 118 118 118
4.63464 0.491625 5.19028 227 227 227
4.58941 0.641142 4.99359 246 246 246
4.42245 0.654273 4.9231 134 134 134
4.2457 0.640571 4.97853 116 116 116
4.21 0.62442 4.98873 226 226 226
-1.1619 -0.388104 4.54384 86 86 86
4.23025 0.493669 5.10329 110 110 110
-2.42266 -4.64077 14.3307 220 220 220
4.13047 0.637476 4.97835 247 247 247
4.092 0.67318 4.92022 126 126 126
21.1567 -4.13668 8.37395 45 45 45
4.18577 0.533405 5.07632 140 140 140
-2.48384 0.718399 5.94889 41 41 41
4.16632 0.497268 5.10087 255 255 255
-1.42664 0.226905 6.43962 58 58 58
4.07709 0.549965 5.02736 108 108 108
-2.40563 -0.952613 8.60346 113 113 113
3.97865 0.525845 5.03899 237 237 237
-3.08876 -1.91514 10.6503 114 114 114
3.94404 0.515203 5.02511 130 130 130
-0.801952 -1.08978 7.63285 65 65 65
3.97649 0.485204 5.07839 101 101 101
-1.63408 -2.92889 11.5145 131 131 131
3.87721 0.574824 4.97807 178 178 178
-2.61504 -3.79338 13.2584 140 140 140
3.71487 0.621694 4.93548 124 124 124
-0.374155 -3.30404 11.2102 102 102 102
3.60877 0.671226 4.83755 120 120 120
51.5145 -7.30169 28.5629 141 141 141
3.67345 0.516313 5.03524 122 122 122
-2.72407 0.766745 5.90453 72 72 72
3.4796 0.673904 4.79207 201 201 201
-2.75832 0.744304 5.9114 143 143 143
3.25087 0.699271 4.75519 140 140 140
-2.32254 0.845006 5.69299 57 57 57
3.18534 0.637907 4.82808 198 198 198
-2.30786 0.827434 5.71317 54 54 54
3.18127 0.551499 4.95864 223 223 223
-2.72406 0.695489 5.99638 152 152 152
3.16685 0.705255 4.74283 139 139 139
-1.442 1.04652 5.15937 136 136 136
3.10529 0.624332 4.83702 120 120 120
-1.95893 0.910552 5.50226 61 61 61
2.97166 0.68027 4.75393 139 139 139
-2.22294 0.802153 5.78439 212 212 212
2.84679 0.711098 4.72732 251 251 251
-2.16007 0.787344 5.80395 57 57 57
2.59125 0.587794 4.89696 241 241 241
-1.26396 1.09386 5.08391 44 44 44
2.52133 0.648296 4.85645 135 135 135
-1.31297 1.02923 5.17294 164 164 164
2.52102 0.648037 4.8578 135 135 135
-1.14604 0.987042 5.24179 54 54 54
2.39928 0.614267 4.93151 135 135 135
-1.39194 0.937973 5.35256 45 45 45
2.41692 0.549435 4.96227 148 148 148
-1.67508 0.819418 5.64637 41 41 41
2.27751 0.683345 4.87728 249 249 249
-2.03548 0.724453 5.91339 64 64 64
2.17286 0.507471 5.09271 149 149 149
-2.1034 0.669069 6.01427 62 62 62
1.93989 0.541247 5.13257 231 231 231
-2.29212 0.618478 6.12422 55 55 55
1.91203 0.694103 5.01902 214 214 214
-2.7565 0.436038 6.58254 249 249 249
1.75715 0.683244 5.08589 132 132 132
-2.7565 0.436038 6.58254 249 249 249
1.6923 0.636327 5.14444 133 133 133
-2.87157 0.358088 6.77797 161 161 161
1.43912 0.665666 5.24105 221 221 221
-1.94861 0.617993 6.09722 68 68 68
1.45169 0.635915 5.28269 95 95 95
-2.09132 0.564611 6.20439 96 96 96
1.61467 0.606832 5.20525 119 119 119
-2.76385 0.340156 6.76443 85 85 85
1.45115 0.604542 5.27699 254 254 254
-2.86417 0.236331 6.96051 244 244 244
1.18104 0.669224 5.3482 171 171 171
-0.916827 0.8442 5.51155 251 251 251
1.16459 0.507366 5.458 208 208 208
-1.26458 0.810071 5.61455 48 48 48
1.14015 0.716693 5.26317 135 135 135
-1.91671 0.451886 6.26403 165 165 165
1.15536 0.682232 5.3009 109 109 109
-2.42602 0.291339 6.69816 92 92 92
1.15536 0.682232 5.3009 109 109 109
-2.4703 0.292347 6.73192 105 105 105
1.1358 0.649733 5.31991 214 214 214
-2.66325 0.2429 6.8941 76 76 76
1.09318 0.615569 5.36859 118 118 118
-1.36276 0.565681 5.96145 220 220 220
0.867219 0.50777 5.58293 130 130 130
-1.96153 0.332188 6.48331 210 210 210
0.826389 0.71266 5.34941 98 98 98
-3.37836 -0.0959505 7.64321 106 106 106
0.812128 0.653597 5.39474 106 106 106
-0.0270941 1.01913 5.1647 46 46 46
0.739836 0.711853 5.34885 126 126 126
-1.29327 0.496771 6.06778 138 138 138
0.903473 0.607554 5.4057 100 100 100
-1.68171 0.344525 6.2919 48 48 48
0.903522 0.607457 5.40574 100 100 100
-2.69494 0.00552566 7.22596 217 217 217
0.762452 0.508206 5.54554 216 216 216
-3.18157 -0.174089 7.72455 164 164 164
0.685941 0.676143 5.39848 207 207 207
-3.83007 -0.355774 8.34297 200 200 200
0.669139 0.643755 5.43344 120 120 120
-1.60631 0.215355 6.47732 45 45 45
0.38229 0.622768 5.55233 107 107 107
-2.42006 -0.0299544 7.17507 56 56 56
0.246606 0.683535 5.48776 190 190 190
-2.42042 -0.0283691 7.17561 56 56 56
0.183022 0.514744 5.74818 130 130 130
-2.72943 -0.235354 7.53483 93 93 93
0.0525155 0.733442 5.50327 122 122 122
-3.02617 -0.251015 7.72243 113 113 113
-0.0968296 0.545163 5.73302 171 171 171
-3.04109 -0.312969 7.81971 100 100 100
-0.222769 0.64174 5.64351 178 178 178
-3.07522 -0.320911 7.83072 251 251 251
-0.304305 0.547237 5.7693 112 112 112
0.366843 0.786234 5.37585 245 245 245
-0.356336 0.518174 5.80847 246 246 246
0.366843 0.786234 5.37585 245 245 245
14.5467 -0.573404 10.693 81 81 81
-0.699308 0.439582 5.98635 122 122 122
14.5467 -0.573404 10.693 81 81 81
-1.03472 0.322201 6.24305 83 83 83
13.4386 -0.558325 10.605 153 153 153
-1.07207 0.233829 6.32696 76 76 76
13.4261 -0.554413 10.589 153 153 153
-1.41644 0.235969 6.41073 177 177 177
13.4023 -0.585394 10.6456 100 100 100
-1.77712 0.0422885 6.74076 56 56 56
10.6573 -0.0347563 8.4048 108 108 108
-2.54071 -0.279366 7.50416 96 96 96
9.6027 -0.061971 7.92964 128 128 128
-2.92984 -0.377578 7.83145 105 105 105
9.24308 -0.0716811 7.72112 106 106 106
-0.91188 0.207984 6.31981 51 51 51
8.86176 -0.159827 7.68172 125 125 125
-1.34037 0.0162943 6.60719 60 60 60
7.90244 0.185216 6.74558 122 122 122
-1.36292 -0.00465625 6.66335 74 74 74
7.82304 0.1567 6.72094 114 114 114
-1.60217 -0.102232 6.86584 60 60 60
7.84511 0.0553556 6.82869 115 115 115
-3.7588 -0.825846 9.25736 133 133 133
7.55243 0.166752 6.56136 148 148 148
-1.261 -0.173617 6.83794 246 246 246
7.55522 0.166227 6.56763 148 148 148
-1.36302 -0.219939 6.92364 65 65 65
7.76929 -0.0334618 6.87071 115 115 115
-1.6692 -0.340126 7.24914 48 48 48
7.24803 0.235511 6.37978 97 97 97
-1.96183 -0.337307 7.30203 171 171 171
7.1155 0.25345 6.30597 104 104 104
-2.97222 -0.748596 8.6422 255 255 255
7.23933 -0.0318219 6.70232 216 216 216
-3.61379 -0.971533 9.476 121 121 121
6.99831 0.269652 6.27688 111 111 111
-3.79919 -1.12396 9.94894 255 255 255
6.83127 0.197404 6.2745 128 128 128
-3.83175 -1.11752 9.95395 153 153 153
6.75145 0.189662 6.24251 252 252 252
0.548469 0.424452 5.6972 55 55 55
6.29072 0.223973 6.02247 126 126 126
-0.342363 0.133391 6.19639 67 67 67
6.35629 0.0949157 6.11445 250 250 250
-0.744709 -0.0754037 6.58666 99 99 99
6.20977 0.0870691 6.10447 100 100 100
-1.06779 -0.205379 6.75856 189 189 189
6.13265 0.209079 6.00073 254 254 254
-1.39665 -0.251932 6.9689 94 94 94
5.44807 0.317411 5.62284 235 235 235
-2.18385 -0.593854 7.81946 214 214 214
5.44631 0.31805 5.61511 235 235 235
-2.18385 -0.593854 7.81946 214 214 214
5.54465 0.214645 5.69134 83 83 83
-2.74188 -0.856331 8.68252 253 253 253
5.15856 0.287236 5.53737 247 247 247
-3.37743 -1.13191 9.60765 112 112 112
5.30083 0.181545 5.67033 120 120 120
-3.4812 -1.28483 9.91936 154 154 154
5.13495 0.251762 5.56832 135 135 135
-3.70867 -1.2044 9.9796 138 138 138
4.80827 0.264593 5.46564 215 215 215
-3.70515 -1.36602 10.1931 123 123 123
4.81061 0.26224 5.48209 215 215 215
0.203965 0.138844 6.09827 90 90 90
4.74985 0.208485 5.52296 131 131 131
-3.53238 -1.38377 10.1735 125 125 125
4.54012 0.299041 5.41659 218 218 218
-3.59385 -1.44392 10.2216 234 234 234
4.48125 0.226077 5.45408 221 221 221
-3.6212 -1.51197 10.3151 115 115 115
4.38744 0.329113 5.2859 118 118 118
-0.00423629 -0.256123 6.55145 64 64 64
4.36157 0.301944 5.32577 223 223 223
-0.658524 -0.366178 6.85197 205 205 205
4.01012 0.447389 5.13948 123 123 123
-2.58245 -1.17275 9.16131 248 248 248
4.04761 0.392957 5.16086 243 243 243
-2.58245 -1.17275 9.16131 248 248 248
4.07335 0.292208 5.2998 138 138 138
-3.54556 -1.56218 10.3132 126 126 126
4.07356 0.291353 5.30102 138 138 138
-3.83027 -2.00675 11.6373 116 116 116
3.93352 0.389358 5.14386 254 254 254
-0.473453 -0.627897 7.10288 54 54 54
3.9571 0.274125 5.27243 117 117 117
-1.11232 -0.889772 7.58795 251 251 251
3.95677 0.274367 5.27155 117 117 117
-1.84747 -1.10712 8.38647 230 230 230
3.57204 0.367701 5.15442 236 236 236
-2.64449 -1.60066 9.8552 247 247 247
3.75615 0.241701 5.26657 222 222 222
-3.69342 -2.158 11.7862 230 230 230
3.72834 0.25805 5.27277 126 126 126
-3.89681 -2.16157 11.864 148 148 148
3.64882 0.323933 5.18781 220 220 220
0.730604 -0.290408 6.41295 254 254 254
3.5057 0.250007 5.28523 123 123 123
-0.59121 -0.887768 7.37749 255 255 255
3.27066 0.448106 5.06017 254 254 254
-1.16634 -1.18678 8.01672 90 90 90
3.27009 0.445301 5.07216 254 254 254
-1.35022 -1.14903 8.16606 104 104 104
3.14786 0.359342 5.19302 133 133 133
-1.32301 -1.22896 8.20535 228 228 228
2.89589 0.304298 5.23464 248 248 248
-3.34378 -2.23537 11.6398 222 222 222
2.89617 0.304745 5.23072 248 248 248
-3.36426 -2.27685 11.6773 131 131 131
2.5566 0.504379 4.99693 147 147 147
1.57782 -0.36469 6.30568 249 249 249
2.55917 0.498657 4.98803 147 147 147
1.55713 -0.527954 6.51549 61 61 61
2.4763 0.290909 5.30393 116 116 116
-0.258788 -1.109 7.50704 57 57 57
2.47442 0.290855 5.31255 116 116 116
1.81633 -0.501727 6.38063 138 138 138
2.44543 0.266278 5.33439 230 230 230
0.527757 -0.906762 7.13781 239 239 239
2.35281 0.406047 5.19117 141 141 141
0.333225 -1.08764 7.37508 110 110 110
2.45287 0.364519 5.22227 126 126 126
-0.175724 -1.41642 7.92957 99 99 99
2.41488 0.297305 5.27853 136 136 136
-0.910147 -1.66341 8.64045 118 118 118
2.26398 0.453173 5.13607 254 254 254
-1.16011 -1.83971 9.04483 93 93 93
2.23112 0.415764 5.18621 180 180 180
-1.57584 -2.05083 9.59376 249 249 249
2.09364 0.433413 5.19661 113 113 113
-1.57028 -2.09565 9.7037 112 112 112
2.1549 0.293886 5.35859 111 111 111
-1.99646 -2.53657 11.1405 139 139 139
2.12219 0.361499 5.28202 128 128 128
-2.97236 -2.84383 12.3044 128 128 128
2.0969 0.336019 5.29148 235 235 235
-3.6084 -3.06504 12.8961 126 126 126
2.09325 0.334768 5.30383 235 235 235
2.81217 -0.377542 5.91627 84 84 84
1.94951 0.405918 5.26524 202 202 202
1.4317 -1.16178 7.1936 108 108 108
1.89751 0.457725 5.25072 249 249 249
-1.47223 -2.54724 10.7479 103 103 103
1.7721 0.331877 5.42571 133 133 133
-1.68244 -2.71982 11.2503 99 99 99
1.75983 0.263292 5.52125 238 238 238
-2.32257 -3.11362 12.3767 113 113 113
1.72172 0.454499 5.30438 214 214 214
-2.32437 -3.11219 12.37 113 113 113
1.67876 0.429498 5.36011 143 143 143
-3.55713 -3.54505 13.2961 220 220 220
1.42274 0.380535 5.56069 254 254 254
-3.55661 -3.54304 13.281 220 220 220
1.3799 0.321594 5.61287 181 181 181
2.42597 -1.12523 6.87066 84 84 84
1.29812 0.25721 5.6782 124 124 124
1.43752 -1.27537 7.31673 96 96 96
1.22851 0.264181 5.75047 103 103 103
1.39166 -1.31187 7.33246 241 241 241
1.17645 0.387769 5.62239 126 126 126
1.26285 -1.35511 7.37831 210 210 210
1.0122 0.372733 5.66619 235 235 235
0.600363 -1.49956 7.73423 94 94 94
1.01785 0.373193 5.65218 235 235 235
0.299717 -1.74661 8.21539 232 232 232
1.15349 0.353985 5.66839 222 222 222
0.425594 -1.88016 8.30155 93 93 93
1.05076 0.362196 5.65702 122 122 122
-0.613477 -2.26363 9.29441 255 255 255
0.864616 0.429998 5.63119 109 109 109
-1.14254 -3.01861 11.3249 129 129 129
0.844523 0.467656 5.60477 242 242 242
-1.22002 -3.12905 11.5979 110 110 110
0.869645 0.393236 5.6577 179 179 179
-1.91996 -3.13023 12.1127 129 129 129
0.665245 0.378127 5.74571 93 93 93
-2.82811 -3.57707 13.1123 147 147 147
0.675329 0.430919 5.65058 103 103 103
-3.21424 -3.90788 13.5569 130 130 130
0.636195 0.230223 5.9248 107 107 107
-1.90428 -3.6742 12.7824 216 216 216
0.407515 0.3232 5.83918 184 184 184
-3.2976 -4.19504 13.8554 245 245 245
0.117466 0.470248 5.75752 134 134 134
-3.2976 -4.19504 13.8554 245 245 245
-0.0589433 0.25 6.04371 104 104 104
2.20762 -1.76072 7.73406 76 76 76
-0.161527 0.357368 5.92262 184 184 184
2.40808 -1.85746 7.82176 142 142 142
-0.158236 0.359165 5.91553 184 184 184
1.29609 -2.11785 8.29578 188 188 188
-0.277517 0.454494 5.85143 164 164 164
1.05834 -2.45811 8.67603 105 105 105
-0.335162 0.386851 5.95501 210 210 210
0.457359 -2.4725 8.77932 74 74 74
15.9244 -1.15387 12.2361 113 113 113
0.460049 -2.47339 8.7836 74 74 74
15.8724 -1.37866 12.6379 151 151 151
0.097229 -2.96585 10.1492 179 179 179
15.8804 -1.37973 12.6458 151 151 151
3.04528 -2.18062 8.2012 69 69 69
14.8484 -1.01979 11.8588 91 91 91
2.72568 -2.15849 8.14815 59 59 59
6.87957 0.41913 2.0665 142 142 142
2.5516 -2.36185 8.47726 81 81 81
10.1679 -0.683057 9.14535 208 208 208
2.34039 -2.32973 8.47733 84 84 84
10.1679 -0.683057 9.14535 208 208 208
0.40698 -3.36475 10.6107 108 108 108
9.21691 -0.466678 8.31234 126 126 126
58.4354 -6.04986 24.921 128 128 128
8.54408 -0.16152 7.41467 132 132 132
17.776 -21.6241 56.8274 182 182 182
8.5413 -0.37799 7.72989 110 110 110
-2.53814 -1.57131 4.5365 187 187 187
8.16882 -0.22619 7.31947 147 147 147
8.24153 -0.350348 7.46777 131 131 131
16.0857 -3.41464 10.0915 153 153 153
7.94425 -0.270753 7.21282 192 192 192
-0.870609 0.114146 6.41679 81 81 81
7.12083 -0.0460408 6.62231 130 130 130
0.775316 -1.36446 7.56313 106 106 106
6.99344 -0.0396239 6.63526 123 123 123
0.184011 -1.5783 8.11165 222 222 222
6.99099 -0.0383586 6.63114 123 123 123
0.183509 -1.57914 8.11005 222 222 222
6.80842 -0.044797 6.50127 143 143 143
0.261021 -1.60403 8.10153 238 238 238
6.49991 -0.0651275 6.3771 140 140 140
-1.37405 -2.74603 11.1191 212 212 212
6.47736 -0.128011 6.39305 126 126 126
-1.55844 -2.86896 11.4414 126 126 126
6.44652 -0.164195 6.42273 243 243 243
-2.7391 -3.01028 12.411 130 130 130
6.45307 -0.167495 6.4412 243 243 243
-3.64088 -3.35539 13.1624 170 170 170
6.55347 -0.217737 6.53127 126 126 126
-3.83477 -3.49026 13.3288 131 131 131
6.50354 -0.245711 6.50762 252 252 252
2.61821 -1.29989 6.9715 94 94 94
6.50205 -0.245095 6.50285 252 252 252
0.388065 -2.01206 8.42271 128 128 128
6.39387 -0.129888 6.38314 125 125 125
-0.626577 -2.31946 9.38115 136 136 136
6.17195 -0.0689727 6.24291 127 127 127
-0.74768 -2.35689 9.62075 150 150 150
5.89192 -0.160458 6.27746 111 111 111
-0.880123 -2.92942 11.0752 216 216 216
5.81657 -0.192986 6.25264 141 141 141
-1.43982 -3.11316 11.6102 137 137 137
5.8194 -0.193541 6.26078 141 141 141
-1.66355 -3.0757 11.777 105 105 105
5.25987 -0.102537 5.97079 105 105 105
-2.02393 -3.18753 12.1919 131 131 131
5.00111 0.0662252 5.71539 106 106 106
0.0783642 -2.34492 8.81041 197 197 197
4.96108 -0.0754596 5.83678 115 115 115
-1.70501 -3.87204 12.8944 157 157 157
4.12044 0.153656 5.43617 111 111 111
-2.43826 -4.0243 13.4709 132 132 132
4.17458 0.016388 5.61478 136 136 136
-3.73475 -4.36065 14.183 132 132 132
4.06617 0.0133738 5.52816 126 126 126
0.106259 -2.69378 9.24508 103 103 103
3.93006 0.185045 5.34387 246 246 246
-1.64376 -4.47206 13.8322 127 127 127
3.9619 0.156845 5.37823 118 118 118
35.9721 -3.71338 19.064 109 109 109
3.8974 0.15548 5.33265 110 110 110
52.35 -6.94356 26.9849 116 116 116
3.93627 -0.0189495 5.56026 130 130 130
3.52856 -2.90082 9.06162 82 82 82
3.78342 0.0300966 5.47474 216 216 216
3.10794 -2.58436 8.7461 104 104 104
3.78342 0.0300966 5.47474 216 216 216
53.7992 -7.22523 26.9064 113 113 113
3.77302 -0.0264993 5.62523 132 132 132
3.71777 0.150524 5.36315 124 124 124
0.539841 1.5717 3.99297 43 43 43
3.53748 0.161578 5.36946 248 248 248
-1.32611 1.02587 5.19174 68 68 68
3.53748 0.161578 5.36946 248 248 248
-1.65412 0.858342 5.57261 129 129 129
3.66548 -0.0181028 5.51504 127 127 127
-0.975371 0.980911 5.04418 118 118 118
3.60602 0.0338571 5.50019 124 124 124
-1.94395 0.657565 5.977 168 168 168
3.48504 0.184736 5.31865 230 230 230
0.254541 1.30516 4.66173 175 175 175
3.41013 0.0502694 5.47231 104 104 104
0.244851 1.27828 4.65137 94 94 94
3.16635 0.140269 5.41457 210 210 210
-0.176635 1.18078 4.86138 76 76 76
3.20138 0.0837654 5.45324 202 202 202
-1.05317 0.817354 5.60764 81 81 81
2.6654 0.138538 5.46596 144 144 144
-1.47215 0.743631 5.73893 189 189 189
2.75439 0.1127 5.44642 124 124 124
-0.264926 1.05436 5.14221 143 143 143
2.60925 0.0230758 5.58189 135 135 135
-0.132679 1.04051 5.14148 146 146 146
2.59127 0.175226 5.43853 130 130 130
-1.98768 0.455406 6.35679 54 54 54
2.52864 0.0685658 5.52207 253 253 253
1.40618 1.37273 4.36913 45 45 45
2.52864 0.0685658 5.52207 253 253 253
1.30754 1.32062 4.42387 163 163 163
2.45309 0.12459 5.49726 116 116 116
0.765435 1.25815 4.66001 71 71 71
2.38283 0.051103 5.57802 252 252 252
-0.0987009 0.921189 5.30994 242 242 242
2.12513 0.220447 5.45677 137 137 137
-0.0997823 0.913668 5.33417 64 64 64
2.02372 0.178644 5.4792 168 168 168
-0.810982 0.761364 5.62985 182 182 182
2.0965 0.101074 5.5762 140 140 140
-0.766616 0.751442 5.64889 55 55 55
2.10848 -0.00433891 5.72808 117 117 117
-1.68527 0.484748 6.16696 222 222 222
1.98642 0.0355899 5.666 131 131 131
-0.525062 0.679152 5.65704 54 54 54
1.92474 0.215377 5.52402 152 152 152
-0.655178 0.670777 5.67096 37 37 37
1.76353 0.128483 5.68041 137 137 137
-1.73081 0.339982 6.34571 65 65 65
1.66456 0.141695 5.6718 247 247 247
-2.98877 -0.0470716 7.39887 182 182 182
1.66455 0.141649 5.67178 247 247 247
-3.11647 -0.11377 7.5594 121 121 121
1.48501 0.128465 5.81434 215 215 215
-3.18315 -0.132878 7.65851 128 128 128
1.42771 0.118255 5.83908 127 127 127
0.538954 0.84691 5.24923 60 60 60
1.59563 0.016109 5.86887 114 114 114
0.350478 0.864691 5.26708 61 61 61
1.50203 0.0266069 5.90187 196 196 196
-0.804103 0.47677 5.96256 56 56 56
1.36601 0.0650322 5.90338 132 132 132
-0.804103 0.47677 5.96256 56 56 56
1.32428 -0.0187438 5.99418 116 116 116
-1.34315 0.330442 6.31014 61 61 61
1.34472 0.0919238 5.86244 113 113 113
-1.61405 0.250393 6.41143 64 64 64
1.03939 0.178708 5.88087 102 102 102
-1.43617 0.198156 6.50325 105 105 105
1.04827 0.148794 5.91133 248 248 248
-1.64603 0.23954 6.47209 59 59 59
1.02981 0.00878476 6.04085 225 225 225
-1.90505 0.0750062 6.75594 224 224 224
0.884295 0.0730022 6.00172 121 121 121
-2.05607 0.0528705 6.87104 98 98 98
0.837192 0.175708 5.86403 214 214 214
-2.32325 -0.0615062 7.13395 221 221 221
0.67026 -0.0243922 6.20596 190 190 190
-2.93704 -0.12185 7.52798 230 230 230
0.56422 0.00768508 6.25211 115 115 115
-3.2959 -0.24116 7.87932 97 97 97
0.512809 0.101391 6.05091 109 109 109
-3.29637 -0.240143 7.88369 97 97 97
0.496461 0.00851431 6.1938 194 194 194
-3.24087 -0.276222 7.90559 252 252 252
0.482897 -0.0370515 6.26715 130 130 130
-0.866517 0.258334 6.23778 72 72 72
0.210678 -0.00290709 6.24316 247 247 247
-1.13311 0.170594 6.41694 74 74 74
0.16875 0.0105105 6.23237 120 120 120
-1.37486 0.0641331 6.5628 70 70 70
0.0244526 0.152959 6.11884 200 200 200
-2.5429 -0.277712 7.49659 125 125 125
0.0225994 0.152457 6.12315 200 200 200
1.47958 0.90813 4.9002 64 64 64
-0.0375029 0.0618672 6.24265 117 117 117
1.00779 0.710043 5.2909 203 203 203
-0.152548 -0.0515891 6.40472 101 101 101
0.307227 0.476026 5.72067 79 79 79
-0.153834 -0.0522189 6.40719 101 101 101
0.229666 0.40366 5.82763 82 82 82
-0.241117 0.148755 6.16059 238 238 238
-1.08025 0.0882459 6.48919 49 49 49
-0.258068 0.110294 6.19041 107 107 107
-2.27547 -0.306879 7.45531 237 237 237
-0.458856 0.104031 6.26249 133 133 133
-2.46236 -0.4315 7.68242 247 247 247
-0.382868 0.0421111 6.28405 106 106 106
-3.18287 -0.491284 8.28648 115 115 115
-0.492373 0.0736737 6.30555 237 237 237
-0.492373 0.0736737 6.30555 237 237 237
0.695992 0.358953 5.74577 77 77 77
-0.424437 0.230154 6.11793 193 193 193
-0.18947 0.216467 6.06793 98 98 98
-0.596513 -0.00723436 6.41338 108 108 108
-0.216506 0.193914 6.10818 109 109 109
14.7416 -1.58296 13.1453 157 157 157
-1.43231 -0.235759 6.91852 180 180 180
16.0079 -2.00669 14.1798 115 115 115
-1.53704 -0.200426 6.95557 117 117 117
10.8131 -1.11298 10.289 138 138 138
-1.51602 -0.280622 7.00722 220 220 220
9.44143 -0.993226 9.14019 133 133 133
-1.54753 -0.288125 7.05796 115 115 115
9.43298 -0.990173 9.12723 133 133 133
-2.80744 -0.663158 8.42295 255 255 255
8.33391 -0.588347 7.82587 128 128 128
-2.8561 -0.635078 8.39538 116 116 116
7.94411 -0.514561 7.46708 148 148 148
-0.0561508 0.0613605 6.22097 77 77 77
7.91791 -0.564967 7.49502 117 117 117
-0.616263 -0.227467 6.69149 212 212 212
8.25763 -0.834419 8.14067 131 131 131
-1.99781 -0.499669 7.53236 109 109 109
7.40335 -0.375593 7.09181 126 126 126
-2.09324 -0.65206 7.84414 214 214 214
7.22199 -0.509056 7.10661 244 244 244
-3.32731 -0.936495 9.29796 251 251 251
6.50246 -0.285108 6.5908 130 130 130
-3.31245 -1.01246 9.42389 128 128 128
6.06555 -0.246252 6.38699 200 200 200
-3.37996 -1.09879 9.57227 220 220 220
5.88821 -0.433084 6.54949 126 126 126
2.57092 0.722411 4.75531 225 225 225
5.87369 -0.470288 6.57164 254 254 254
1.81645 0.430285 5.30732 244 244 244
5.63629 -0.282322 6.29366 126 126 126
1.16391 0.285614 5.73039 202 202 202
5.60658 -0.310117 6.34179 250 250 250
0.860119 0.105873 5.95071 50 50 50
5.60464 -0.308284 6.33274 250 250 250
0.225603 0.0054773 6.245 184 184 184
5.47228 -0.298057 6.28714 137 137 137
-1.11559 -0.452049 7.07269 105 105 105
5.71902 -0.364923 6.4336 118 118 118
-2.51223 -0.93488 8.69338 106 106 106
5.31801 -0.252744 6.08073 207 207 207
-2.75099 -1.15324 9.24095 217 217 217
5.18033 -0.133078 5.9581 125 125 125
-3.38422 -1.35509 9.96941 249 249 249
5.19062 -0.178773 6.00547 169 169 169
1.25012 0.026583 5.99328 228 228 228
5.19066 -0.17759 6.00504 169 169 169
0.991952 -0.023883 6.09911 233 233 233
5.36446 -0.376434 6.35866 235 235 235
-1.03564 -0.6295 7.23276 75 75 75
5.36446 -0.376434 6.35866 235 235 235
-1.97171 -1.04573 8.42922 247 247 247
5.31747 -0.328351 6.27389 124 124 124
-2.15629 -1.08767 8.65193 244 244 244
5.1843 -0.278553 6.12174 118 118 118
-3.00355 -1.24705 9.54816 124 124 124
5.14873 -0.314577 6.15684 217 217 217
-3.00355 -1.24705 9.54816 124 124 124
4.76355 -0.159552 5.85506 120 120 120
0.739271 -0.334582 6.45316 201 201 201
4.62715 -0.280001 5.95125 127 127 127
-0.640345 -0.685632 7.18416 92 92 92
4.01499 -0.124597 5.66874 140 140 140
-0.560429 -0.801861 7.28865 89 89 89
3.96965 -0.161895 5.73186 177 177 177
-1.38167 -1.13396 8.17685 132 132 132
4.11156 -0.194114 5.75389 188 188 188
-1.63459 -1.17792 8.33615 88 88 88
3.91836 -0.133658 5.68868 113 113 113
-1.84893 -1.10845 8.37941 239 239 239
3.47163 -0.155116 5.70566 255 255 255
-2.06269 -1.33706 8.89141 254 254 254
3.48577 -0.193269 5.71933 152 152 152
-2.1134 -1.39906 9.06321 171 171 171
3.20396 -0.0391764 5.57434 115 115 115
-2.64283 -1.60001 9.87067 249 249 249
3.11876 -0.15134 5.65442 113 113 113
-2.80631 -1.52782 9.90458 134 134 134
3.04664 -0.0472292 5.58232 247 247 247
3.01629 0.0688558 5.48049 250 250 250
2.94468 -0.131874 5.67153 119 119 119
2.80913 -0.101566 5.655 214 214 214
2.80663 -0.0905938 5.63251 148 148 148
2.03666 -0.105503 5.83189 86 86 86
2.689 -0.0757048 5.64241 106 106 106
2.09227 -0.247351 5.93961 228 228 228
2.58568 -0.000704561 5.57452 225 225 225
-0.421469 -0.867434 7.25837 232 232 232
2.58568 -0.000704561 5.57452 225 225 225
-1.60767 -1.44636 8.60408 134 134 134
2.42667 -0.241942 5.8432 244 244 244
-2.1748 -1.79332 9.93273 116 116 116
2.27775 -0.0704628 5.72283 153 153 153
-2.23287 -1.79117 9.97885 247 247 247
2.31124 -0.0783239 5.72043 254 254 254
-2.23287 -1.79117 9.97885 247 247 247
2.1246 -0.121448 5.84245 240 240 240
-2.77909 -1.92621 10.4309 118 118 118
2.15642 -0.205193 5.90115 249 249 249
-3.3835 -2.34344 11.8511 207 207 207
2.11836 -0.206898 5.91311 143 143 143
-3.61443 -2.36772 11.9906 129 129 129
2.0465 -0.236753 5.94765 245 245 245
3.40642 -0.0471931 5.57953 91 91 91
1.8658 -0.0605903 5.84434 195 195 195
3.42697 -0.0794059 5.58137 255 255 255
1.85029 -0.156067 5.96342 249 249 249
2.30517 -0.303597 5.94187 206 206 206
1.89853 -0.285027 6.03558 154 154 154
2.33902 -0.489006 6.09976 109 109 109
1.63262 -0.291929 6.23024 228 228 228
1.77907 -0.506044 6.39443 77 77 77
1.54606 -0.085374 6.00283 121 121 121
1.74799 -0.585472 6.51024 79 79 79
1.37333 -0.0392484 6.01231 107 107 107
1.49901 -0.617315 6.63428 87 87 87
1.27411 -0.149809 6.19402 112 112 112
0.95647 -0.81255 6.91461 221 221 221
1.45599 -0.222751 6.21069 118 118 118
-0.0486963 -1.05933 7.45378 243 243 243
1.46195 -0.219296 6.19303 118 118 118
-1.05981 -1.36083 8.20627 109 109 109
1.39244 -0.271464 6.25906 127 127 127
-1.00357 -1.60178 8.60487 250 250 250
1.23547 -0.229488 6.24892 243 243 243
-1.12755 -1.55248 8.56638 116 116 116
1.23643 -0.229903 6.24641 243 243 243
-2.59608 -2.20158 10.762 215 215 215
1.19439 -0.0609917 6.11304 110 110 110
2.34637 -0.574424 6.2367 201 201 201
1.10358 -0.224898 6.25943 201 201 201
1.80679 -0.785782 6.73583 84 84 84
1.01629 -0.245745 6.29661 133 133 133
1.56103 -0.871108 6.94617 75 75 75
0.842689 -0.108761 6.2286 131 131 131
0.473112 -1.17464 7.44647 86 86 86
0.811446 -0.0550425 6.18681 112 112 112
0.429438 -1.23733 7.5075 254 254 254
0.811446 -0.0550425 6.18681 112 112 112
0.0602505 -1.42854 7.87225 69 69 69
0.876085 -0.207409 6.29369 250 250 250
0.11578 -1.55407 8.08806 225 225 225
0.844948 -0.259946 6.36747 121 121 121
-0.00171151 -1.57233 8.15759 190 190 190
0.730132 -0.0670775 6.18182 122 122 122
-0.401992 -1.64034 8.42525 120 120 120
0.546525 -0.140988 6.33936 190 190 190
-1.16204 -1.74306 8.95232 255 255 255
0.192322 -0.121737 6.37664 176 176 176
-2.22437 -2.4847 11.1665 128 128 128
0.192322 -0.121737 6.37664 176 176 176
-3.02205 -2.80784 12.2326 130 130 130
0.299115 -0.212262 6.46195 123 123 123
-2.84477 -2.85463 12.2719 245 245 245
0.27114 -0.288623 6.51893 126 126 126
-2.87198 -2.98332 12.4389 124 124 124
0.0940785 -0.288667 6.57703 125 125 125
-3.78534 -3.00565 12.878 116 116 116
-0.222333 -0.171353 6.50469 116 116 116
3.47789 -0.69183 6.25071 158 158 158
-0.348269 -0.231284 6.606 238 238 238
3.03714 -0.832724 6.398 193 193 193
-0.525963 -0.188884 6.62143 202 202 202
-0.2487 -1.83687 8.51294 107 107 107
-0.525963 -0.188884 6.62143 202 202 202
-0.2487 -1.83687 8.51294 107 107 107
-0.609264 -0.312583 6.81481 175 175 175
-0.655819 -1.95847 8.8884 119 119 119
-0.609264 -0.312583 6.81481 175 175 175
-0.691422 -2.03368 9.0757 128 128 128
-0.805532 -0.354317 6.86863 180 180 180
-0.793812 -2.04114 9.1276 129 129 129
-0.822983 -0.13997 6.65597 245 245 245
-0.793812 -2.04114 9.1276 129 129 129
16.2799 -2.75325 15.6009 158 158 158
-1.93767 -2.57342 11.1341 250 250 250
8.56159 -1.37703 9.07776 159 159 159
-2.91772 -3.12791 12.6349 136 136 136
6.67921 -0.616291 7.01382 130 130 130
-3.15274 -3.19362 12.8049 147 147 147
6.71645 -0.670515 7.0592 206 206 206
3.76715 -1.20625 6.84478 82 82 82
6.6284 -0.694728 7.08314 130 130 130
2.85444 -1.23535 6.83749 124 124 124
6.65167 -0.74246 7.13116 242 242 242
2.9655 -1.32563 6.90369 78 78 78
6.48814 -0.608141 6.86438 124 124 124
2.15577 -1.53786 7.47852 161 161 161
5.78358 -0.544102 6.60332 144 144 144
1.41757 -1.73387 7.79874 93 93 93
5.62261 -0.602019 6.68246 103 103 103
1.21475 -1.82095 7.98318 91 91 91
5.62261 -0.602019 6.68246 103 103 103
0.551627 -1.99122 8.35695 241 241 241
5.66161 -0.824013 6.86576 118 118 118
0.139596 -1.90053 8.42024 117 117 117
5.47387 -0.531989 6.55279 132 132 132
-0.345755 -2.65684 10.0231 233 233 233
5.42686 -0.784146 6.8087 111 111 111
-1.0851 -3.1101 11.4877 240 240 240
4.41165 -0.628433 6.29949 102 102 102
-1.38425 -2.85752 11.2655 213 213 213
4.27852 -0.563808 6.19399 106 106 106
-2.85008 -3.51001 13.0611 210 210 210
4.23035 -0.615913 6.23355 212 212 212
-3.10854 -3.56255 13.1201 147 147 147
3.84738 -0.350106 5.92112 128 128 128
-2.90333 -3.86197 13.4329 241 241 241
3.85433 -0.424359 5.9725 112 112 112
-3.17328 -4.00806 13.7112 145 145 145
3.79286 -0.336008 5.88394 217 217 217
-3.46079 -3.94569 13.635 142 142 142
3.7951 -0.470772 6.0409 111 111 111
1.82977 -1.94203 7.93839 84 84 84
3.64557 -0.305372 5.84369 237 237 237
1.08453 -2.16249 8.36004 234 234 234
3.6432 -0.395292 5.92971 252 252 252
0.653218 -2.08606 8.41424 107 107 107
3.52487 -0.362521 5.90205 143 143 143
0.466023 -2.23808 8.5698 110 110 110
3.13805 -0.280332 5.76972 126 126 126
-0.435073 -3.36667 11.3808 138 138 138
3.14439 -0.474885 6.02731 115 115 115
-0.925933 -3.16867 11.4131 87 87 87
3.04008 -0.528365 6.0899 123 123 123
-1.57492 -3.94855 12.9959 167 167 167
2.53245 -0.561154 6.15779 114 114 114
